384.684640 2349.971148 463.840672
384.609883 2351.939753 464.185645
384.535126 2353.908358 464.530618
384.460369 2355.876963 464.875591
384.385611 2357.845568 465.220564
384.310854 2359.814172 465.565537
384.236097 2361.782777 465.910510
384.161340 2363.751382 466.255483
384.086583 2365.719987 466.600457
384.000000 2368.000000 467.000000
382.016678 2367.918494 467.244519
380.033356 2367.836987 467.489038
378.050033 2367.755481 467.733558
376.066711 2367.673974 467.978077
374.083389 2367.592468 468.222596
372.100067 2367.510962 468.467115
370.116744 2367.429455 468.711634
368.133422 2367.347949 468.956153
366.150100 2367.266442 469.200673
364.166778 2367.184936 469.445192
362.183455 2367.103430 469.689711
360.200133 2367.021923 469.934230
358.216811 2366.940417 470.178749
356.233489 2366.858910 470.423269
354.250167 2366.777404 470.667788
352.266844 2366.695898 470.912307
350.283522 2366.614391 471.156826
348.300200 2366.532885 471.401345
346.316878 2366.451379 471.645864
344.333555 2366.369872 471.890384
342.350233 2366.288366 472.134903
340.366911 2366.206859 472.379422
338.383589 2366.125353 472.623941
336.400266 2366.043847 472.868460
334.416944 2365.962340 473.112979
332.433622 2365.880834 473.357499
330.450300 2365.799327 473.602018
328.466977 2365.717821 473.846537
326.483655 2365.636315 474.091056
324.500333 2365.554808 474.335575
322.517011 2365.473302 474.580095
320.533689 2365.391795 474.824614
318.550366 2365.310289 475.069133
316.567044 2365.228783 475.313652
314.583722 2365.147276 475.558171
312.600400 2365.065770 475.802690
310.617077 2364.984263 476.047210
308.633755 2364.902757 476.291729
306.650433 2364.821251 476.536248
304.667111 2364.739744 476.780767
302.683788 2364.658238 477.025286
300.700466 2364.576731 477.269806
298.717144 2364.495225 477.514325
296.733822 2364.413719 477.758844
294.750500 2364.332212 478.003363
292.767177 2364.250706 478.247882
290.783855 2364.169200 478.492401
288.800533 2364.087693 478.736921
286.817211 2364.006187 478.981440
284.833888 2363.924680 479.225959
282.850566 2363.843174 479.470478
280.867244 2363.761668 479.714997
278.883922 2363.680161 479.959517
276.900599 2363.598655 480.204036
274.917277 2363.517148 480.448555
272.933955 2363.435642 480.693074
270.950633 2363.354136 480.937593
268.967311 2363.272629 481.182112
266.983988 2363.191123 481.426632
265.000666 2363.109616 481.671151
263.017344 2363.028110 481.915670
261.034022 2362.946604 482.160189
259.050699 2362.865097 482.404708
257.067377 2362.783591 482.649227
255.084055 2362.702084 482.893747
253.100733 2362.620578 483.138266
251.117410 2362.539072 483.382785
249.134088 2362.457565 483.627304
247.150766 2362.376059 483.871823
245.167444 2362.294552 484.116343
243.184121 2362.213046 484.360862
241.200799 2362.131540 484.605381
239.217477 2362.050033 484.849900
237.234155 2361.968527 485.094419
235.250833 2361.887021 485.338938
233.267510 2361.805514 485.583458
231.284188 2361.724008 485.827977
229.300866 2361.642501 486.072496
227.317544 2361.560995 486.317015
225.334221 2361.479489 486.561534
223.350899 2361.397982 486.806054
221.367577 2361.316476 487.050573
219.384255 2361.234969 487.295092
217.400932 2361.153463 487.539611
215.417610 2361.071957 487.784130
213.434288 2360.990450 488.028649
211.450966 2360.908944 488.273169
209.467644 2360.827437 488.517688
207.484321 2360.745931 488.762207
205.500999 2360.664425 489.006726
203.517677 2360.582918 489.251245
201.534355 2360.501412 489.495765
199.551032 2360.419905 489.740284
197.567710 2360.338399 489.984803
195.584388 2360.256893 490.229322
193.601066 2360.175386 490.473841
191.617743 2360.093880 490.718360
189.634421 2360.012373 490.962880
187.651099 2359.930867 491.207399
185.667777 2359.849361 491.451918
183.684454 2359.767854 491.696437
181.701132 2359.686348 491.940956
179.717810 2359.604842 492.185475
177.734488 2359.523335 492.429995
175.751166 2359.441829 492.674514
173.767843 2359.360322 492.919033
171.784521 2359.278816 493.163552
169.801199 2359.197310 493.408071
167.817877 2359.115803 493.652591
165.834554 2359.034297 493.897110
163.851232 2358.952790 494.141629
161.867910 2358.871284 494.386148
159.884588 2358.789778 494.630667
157.901265 2358.708271 494.875186
155.917943 2358.626765 495.119706
153.934621 2358.545258 495.364225
151.951299 2358.463752 495.608744
149.967977 2358.382246 495.853263
147.984654 2358.300739 496.097782
146.001332 2358.219233 496.342302
144.018010 2358.137726 496.586821
142.034688 2358.056220 496.831340
140.051365 2357.974714 497.075859
138.068043 2357.893207 497.320378
136.084721 2357.811701 497.564897
134.101399 2357.730194 497.809417
132.118076 2357.648688 498.053936
130.134754 2357.567182 498.298455
128.151432 2357.485675 498.542974
126.168110 2357.404169 498.787493
124.184788 2357.322663 499.032012
122.201465 2357.241156 499.276532
120.218143 2357.159650 499.521051
118.234821 2357.078143 499.765570
116.251499 2356.996637 500.010089
114.268176 2356.915131 500.254608
112.284854 2356.833624 500.499128
110.301532 2356.752118 500.743647
108.318210 2356.670611 500.988166
106.334887 2356.589105 501.232685
104.351565 2356.507599 501.477204
102.368243 2356.426092 501.721723
100.384921 2356.344586 501.966243
98.401598 2356.263079 502.210762
96.418276 2356.181573 502.455281
94.434954 2356.100067 502.699800
92.451632 2356.018560 502.944319
90.468310 2355.937054 503.188839
88.484987 2355.855547 503.433358
86.501665 2355.774041 503.677877
84.518343 2355.692535 503.922396
82.535021 2355.611028 504.166915
80.551698 2355.529522 504.411434
78.568376 2355.448015 504.655954
76.585054 2355.366509 504.900473
74.601732 2355.285003 505.144992
72.618409 2355.203496 505.389511
70.635087 2355.121990 505.634030
68.651765 2355.040483 505.878550
66.668443 2354.958977 506.123069
64.685121 2354.877471 506.367588
62.701798 2354.795964 506.612107
60.718476 2354.714458 506.856626
58.735154 2354.632952 507.101145
56.751832 2354.551445 507.345665
54.768509 2354.469939 507.590184
52.785187 2354.388432 507.834703
50.801865 2354.306926 508.079222
48.818543 2354.225420 508.323741
46.835220 2354.143913 508.568260
44.851898 2354.062407 508.812780
42.868576 2353.980900 509.057299
40.885254 2353.899394 509.301818
38.901932 2353.817888 509.546337
36.918609 2353.736381 509.790856
34.935287 2353.654875 510.035376
32.951965 2353.573368 510.279895
30.968643 2353.491862 510.524414
28.985320 2353.410356 510.768933
27.001998 2353.328849 511.013452
25.018676 2353.247343 511.257971
23.035354 2353.165836 511.502491
21.052031 2353.084330 511.747010
19.068709 2353.002824 511.991529
17.085387 2352.921317 512.236048
15.102065 2352.839811 512.480567
13.118742 2352.758304 512.725087
11.135420 2352.676798 512.969606
9.152098 2352.595292 513.214125
7.168776 2352.513785 513.458644
5.185454 2352.432279 513.703163
3.202131 2352.350773 513.947682
1.218809 2352.269266 514.192202
-0.764513 2352.187760 514.436721
-2.747835 2352.106253 514.681240
-4.731158 2352.024747 514.925759
-6.714480 2351.943241 515.170278
-8.697802 2351.861734 515.414798
-10.681124 2351.780228 515.659317
-12.664447 2351.698721 515.903836
-14.647769 2351.617215 516.148355
-16.631091 2351.535709 516.392874
-18.614413 2351.454202 516.637393
-20.597735 2351.372696 516.881913
-22.581058 2351.291189 517.126432
-24.564380 2351.209683 517.370951
-26.547702 2351.128177 517.615470
-28.531024 2351.046670 517.859989
-30.514347 2350.965164 518.104508
-32.497669 2350.883657 518.349028
-34.480991 2350.802151 518.593547
-36.464313 2350.720645 518.838066
-38.447636 2350.639138 519.082585
-40.430958 2350.557632 519.327104
-42.414280 2350.476125 519.571624
-44.397602 2350.394619 519.816143
-46.380924 2350.313113 520.060662
-48.364247 2350.231606 520.305181
-50.347569 2350.150100 520.549700
-52.330891 2350.068594 520.794219
-54.314213 2349.987087 521.038739
-56.297536 2349.905581 521.283258
-58.280858 2349.824074 521.527777
-60.264180 2349.742568 521.772296
-62.247502 2349.661062 522.016815
-64.230825 2349.579555 522.261335
-66.214147 2349.498049 522.505854
-68.197469 2349.416542 522.750373
-70.180791 2349.335036 522.994892
-72.164114 2349.253530 523.239411
-74.147436 2349.172023 523.483930
-76.130758 2349.090517 523.728450
-78.114080 2349.009010 523.972969
-80.097402 2348.927504 524.217488
-82.080725 2348.845998 524.462007
-84.064047 2348.764491 524.706526
-86.047369 2348.682985 524.951046
-88.030691 2348.601478 525.195565
-90.014014 2348.519972 525.440084
-91.997336 2348.438466 525.684603
-93.980658 2348.356959 525.929122
-95.963980 2348.275453 526.173641
-97.947303 2348.193946 526.418161
-99.930625 2348.112440 526.662680
-101.913947 2348.030934 526.907199
-103.897269 2347.949427 527.151718
-105.880591 2347.867921 527.396237
-107.863914 2347.786415 527.640756
-109.847236 2347.704908 527.885276
-111.830558 2347.623402 528.129795
-113.813880 2347.541895 528.374314
-115.797203 2347.460389 528.618833
-117.780525 2347.378883 528.863352
-119.763847 2347.297376 529.107872
-121.747169 2347.215870 529.352391
-123.730492 2347.134363 529.596910
-125.713814 2347.052857 529.841429
-127.697136 2346.971351 530.085948
-129.680458 2346.889844 530.330467
-131.663781 2346.808338 530.574987
-133.647103 2346.726831 530.819506
-135.630425 2346.645325 531.064025
-137.613747 2346.563819 531.308544
-139.597069 2346.482312 531.553063
-141.580392 2346.400806 531.797583
-143.563714 2346.319299 532.042102
-145.547036 2346.237793 532.286621
-147.530358 2346.156287 532.531140
-149.513681 2346.074780 532.775659
-151.497003 2345.993274 533.020178
-153.480325 2345.911767 533.264698
-155.463647 2345.830261 533.509217
-157.446970 2345.748755 533.753736
-159.430292 2345.667248 533.998255
-161.413614 2345.585742 534.242774
-163.396936 2345.504235 534.487294
-165.380258 2345.422729 534.731813
-167.363581 2345.341223 534.976332
-169.346903 2345.259716 535.220851
-171.330225 2345.178210 535.465370
-173.313547 2345.096704 535.709889
-175.296870 2345.015197 535.954409
-177.280192 2344.933691 536.198928
-179.263514 2344.852184 536.443447
-181.246836 2344.770678 536.687966
-183.230159 2344.689172 536.932485
-185.213481 2344.607665 537.177004
-187.196803 2344.526159 537.421524
-189.180125 2344.444652 537.666043
-191.163447 2344.363146 537.910562
-193.146770 2344.281640 538.155081
-195.130092 2344.200133 538.399600
-197.113414 2344.118627 538.644120
-199.096736 2344.037120 538.888639
-201.080059 2343.955614 539.133158
-203.063381 2343.874108 539.377677
-205.046703 2343.792601 539.622196
-207.030025 2343.711095 539.866715
-209.013348 2343.629588 540.111235
-210.996670 2343.548082 540.355754
-212.979992 2343.466576 540.600273
-214.963314 2343.385069 540.844792
-216.946637 2343.303563 541.089311
-218.929959 2343.222056 541.333831
-220.913281 2343.140550 541.578350
-222.896603 2343.059044 541.822869
-224.879925 2342.977537 542.067388
-226.863248 2342.896031 542.311907
-228.846570 2342.814525 542.556426
-230.829892 2342.733018 542.800946
-232.813214 2342.651512 543.045465
-234.796537 2342.570005 543.289984
-236.779859 2342.488499 543.534503
-238.763181 2342.406993 543.779022
-240.746503 2342.325486 544.023542
-242.729826 2342.243980 544.268061
-244.713148 2342.162473 544.512580
-246.696470 2342.080967 544.757099
-248.679792 2341.999461 545.001618
-250.663114 2341.917954 545.246137
-252.646437 2341.836448 545.490657
-254.629759 2341.754941 545.735176
-256.613081 2341.673435 545.979695
-258.596403 2341.591929 546.224214
-260.579726 2341.510422 546.468733
-262.563048 2341.428916 546.713252
-264.546370 2341.347409 546.957772
-266.529692 2341.265903 547.202291
-268.513015 2341.184397 547.446810
-270.496337 2341.102890 547.691329
-272.479659 2341.021384 547.935848
-274.462981 2340.939877 548.180368
-276.446303 2340.858371 548.424887
-278.429626 2340.776865 548.669406
-280.412948 2340.695358 548.913925
-282.396270 2340.613852 549.158444
-284.379592 2340.532346 549.402963
-286.362915 2340.450839 549.647483
-288.346237 2340.369333 549.892002
-290.329559 2340.287826 550.136521
-292.312881 2340.206320 550.381040
-294.296204 2340.124814 550.625559
-296.279526 2340.043307 550.870079
-298.262848 2339.961801 551.114598
-300.246170 2339.880294 551.359117
-302.229493 2339.798788 551.603636
-304.212815 2339.717282 551.848155
-306.196137 2339.635775 552.092674
-308.179459 2339.554269 552.337194
-310.162781 2339.472762 552.581713
-312.146104 2339.391256 552.826232
-314.129426 2339.309750 553.070751
-316.112748 2339.228243 553.315270
-318.096070 2339.146737 553.559789
-320.079393 2339.065230 553.804309
-322.062715 2338.983724 554.048828
-324.046037 2338.902218 554.293347
-326.029359 2338.820711 554.537866
-328.012682 2338.739205 554.782385
-329.996004 2338.657698 555.026905
-331.979326 2338.576192 555.271424
-333.962648 2338.494686 555.515943
-335.945970 2338.413179 555.760462
-337.929293 2338.331673 556.004981
-339.912615 2338.250167 556.249500
-341.895937 2338.168660 556.494020
-343.879259 2338.087154 556.738539
-345.862582 2338.005647 556.983058
-347.845904 2337.924141 557.227577
-349.829226 2337.842635 557.472096
-351.812548 2337.761128 557.716616
-353.795871 2337.679622 557.961135
-355.779193 2337.598115 558.205654
-357.762515 2337.516609 558.450173
-359.745837 2337.435103 558.694692
-361.729160 2337.353596 558.939211
-363.712482 2337.272090 559.183731
-365.695804 2337.190583 559.428250
-367.679126 2337.109077 559.672769
-369.662448 2337.027571 559.917288
-371.645771 2336.946064 560.161807
-373.629093 2336.864558 560.406327
-375.612415 2336.783051 560.650846
-377.595737 2336.701545 560.895365
-379.579060 2336.620039 561.139884
-381.562382 2336.538532 561.384403
-383.545704 2336.457026 561.628922
-385.529026 2336.375519 561.873442
-387.512349 2336.294013 562.117961
-389.495671 2336.212507 562.362480
-391.478993 2336.131000 562.606999
-393.462315 2336.049494 562.851518
-395.445637 2335.967988 563.096037
-397.428960 2335.886481 563.340557
-399.412282 2335.804975 563.585076
-401.395604 2335.723468 563.829595
-403.378926 2335.641962 564.074114
-405.362249 2335.560456 564.318633
-407.345571 2335.478949 564.563153
-409.328893 2335.397443 564.807672
-411.312215 2335.315936 565.052191
-413.295538 2335.234430 565.296710
-415.278860 2335.152924 565.541229
-417.262182 2335.071417 565.785748
-419.245504 2334.989911 566.030268
-421.228826 2334.908404 566.274787
-423.212149 2334.826898 566.519306
-425.195471 2334.745392 566.763825
-427.178793 2334.663885 567.008344
-429.162115 2334.582379 567.252864
-431.145438 2334.500872 567.497383
-433.128760 2334.419366 567.741902
-435.112082 2334.337860 567.986421
-437.095404 2334.256353 568.230940
-439.078727 2334.174847 568.475459
-441.062049 2334.093340 568.719979
-443.045371 2334.011834 568.964498
-445.028693 2333.930328 569.209017
-447.012016 2333.848821 569.453536
-448.995338 2333.767315 569.698055
-450.978660 2333.685808 569.942575
-452.961982 2333.604302 570.187094
-454.945304 2333.522796 570.431613
-456.928627 2333.441289 570.676132
-458.911949 2333.359783 570.920651
-460.895271 2333.278277 571.165170
-462.878593 2333.196770 571.409690
-464.861916 2333.115264 571.654209
-466.845238 2333.033757 571.898728
-468.828560 2332.952251 572.143247
-470.811882 2332.870745 572.387766
-472.795205 2332.789238 572.632285
-474.778527 2332.707732 572.876805
-476.761849 2332.626225 573.121324
-478.745171 2332.544719 573.365843
-480.728493 2332.463213 573.610362
-482.711816 2332.381706 573.854881
-484.695138 2332.300200 574.099401
-486.678460 2332.218693 574.343920
-488.661782 2332.137187 574.588439
-490.645105 2332.055681 574.832958
-492.628427 2331.974174 575.077477
-494.611749 2331.892668 575.321996
-496.595071 2331.811161 575.566516
-498.578394 2331.729655 575.811035
-500.561716 2331.648149 576.055554
-502.545038 2331.566642 576.300073
-504.528360 2331.485136 576.544592
-506.511682 2331.403629 576.789112
-508.495005 2331.322123 577.033631
-510.478327 2331.240617 577.278150
-512.461649 2331.159110 577.522669
-514.444971 2331.077604 577.767188
-516.428294 2330.996098 578.011707
-518.411616 2330.914591 578.256227
-520.394938 2330.833085 578.500746
-522.378260 2330.751578 578.745265
-524.361583 2330.670072 578.989784
-526.344905 2330.588566 579.234303
-528.328227 2330.507059 579.478823
-530.311549 2330.425553 579.723342
-532.294872 2330.344046 579.967861
-534.278194 2330.262540 580.212380
-536.261516 2330.181034 580.456899
-538.244838 2330.099527 580.701418
-540.228160 2330.018021 580.945938
-542.211483 2329.936514 581.190457
-544.194805 2329.855008 581.434976
-546.178127 2329.773502 581.679495
-548.161449 2329.691995 581.924014
-550.144772 2329.610489 582.168533
-552.128094 2329.528982 582.413053
-554.111416 2329.447476 582.657572
-556.094738 2329.365970 582.902091
-558.078061 2329.284463 583.146610
-560.061383 2329.202957 583.391129
-562.044705 2329.121450 583.635649
-564.028027 2329.039944 583.880168
-566.011349 2328.958438 584.124687
-567.994672 2328.876931 584.369206
-569.977994 2328.795425 584.613725
-571.961316 2328.713919 584.858244
-573.944638 2328.632412 585.102764
-575.927961 2328.550906 585.347283
-577.911283 2328.469399 585.591802
-579.894605 2328.387893 585.836321
-581.877927 2328.306387 586.080840
-583.861250 2328.224880 586.325360
-585.844572 2328.143374 586.569879
-587.827894 2328.061867 586.814398
-589.811216 2327.980361 587.058917
-591.794538 2327.898855 587.303436
-593.777861 2327.817348 587.547955
-595.761183 2327.735842 587.792475
-597.744505 2327.654335 588.036994
-599.727827 2327.572829 588.281513
-601.711150 2327.491323 588.526032
-603.694472 2327.409816 588.770551
-605.677794 2327.328310 589.015071
-607.661116 2327.246803 589.259590
-609.644439 2327.165297 589.504109
-611.627761 2327.083791 589.748628
-613.611083 2327.002284 589.993147
-615.594405 2326.920778 590.237666
-617.577728 2326.839271 590.482186
-619.561050 2326.757765 590.726705
-621.544372 2326.676259 590.971224
-623.527694 2326.594752 591.215743
-625.511016 2326.513246 591.460262
-627.494339 2326.431740 591.704781
-629.477661 2326.350233 591.949301
-631.460983 2326.268727 592.193820
-633.444305 2326.187220 592.438339
-635.427628 2326.105714 592.682858
-637.410950 2326.024208 592.927377
-639.394272 2325.942701 593.171897
-641.377594 2325.861195 593.416416
-643.360917 2325.779688 593.660935
-645.344239 2325.698182 593.905454
-647.327561 2325.616676 594.149973
-649.310883 2325.535169 594.394492
-651.294205 2325.453663 594.639012
-653.277528 2325.372156 594.883531
-655.260850 2325.290650 595.128050
-657.244172 2325.209144 595.372569
-659.227494 2325.127637 595.617088
-661.210817 2325.046131 595.861608
-663.194139 2324.964624 596.106127
-665.177461 2324.883118 596.350646
-667.160783 2324.801612 596.595165
-669.144106 2324.720105 596.839684
-671.127428 2324.638599 597.084203
-673.110750 2324.557092 597.328723
-675.094072 2324.475586 597.573242
-677.077395 2324.394080 597.817761
-679.060717 2324.312573 598.062280
-681.044039 2324.231067 598.306799
-683.027361 2324.149560 598.551319
-685.010683 2324.068054 598.795838
-686.994006 2323.986548 599.040357
-688.977328 2323.905041 599.284876
-690.960650 2323.823535 599.529395
-692.943972 2323.742029 599.773914
-694.927295 2323.660522 600.018434
-696.910617 2323.579016 600.262953
-698.893939 2323.497509 600.507472
-700.877261 2323.416003 600.751991
-702.860584 2323.334497 600.996510
-704.843906 2323.252990 601.241029
-706.827228 2323.171484 601.485549
-708.810550 2323.089977 601.730068
-710.793872 2323.008471 601.974587
-712.777195 2322.926965 602.219106
-714.760517 2322.845458 602.463625
-716.743839 2322.763952 602.708145
-718.727161 2322.682445 602.952664
-720.710484 2322.600939 603.197183
-722.693806 2322.519433 603.441702
-724.677128 2322.437926 603.686221
-726.660450 2322.356420 603.930740
-728.643773 2322.274913 604.175260
-730.627095 2322.193407 604.419779
-732.610417 2322.111901 604.664298
-734.593739 2322.030394 604.908817
-736.577061 2321.948888 605.153336
-738.560384 2321.867381 605.397856
-740.543706 2321.785875 605.642375
-742.527028 2321.704369 605.886894
-744.510350 2321.622862 606.131413
-746.493673 2321.541356 606.375932
-748.476995 2321.459850 606.620451
-750.460317 2321.378343 606.864971
-752.443639 2321.296837 607.109490
-754.426962 2321.215330 607.354009
-756.410284 2321.133824 607.598528
-758.393606 2321.052318 607.843047
-760.376928 2320.970811 608.087567
-762.360251 2320.889305 608.332086
-764.343573 2320.807798 608.576605
-766.326895 2320.726292 608.821124
-768.310217 2320.644786 609.065643
-770.293539 2320.563279 609.310162
-772.276862 2320.481773 609.554682
-774.260184 2320.400266 609.799201
-776.243506 2320.318760 610.043720
-778.226828 2320.237254 610.288239
-780.210151 2320.155747 610.532758
-782.193473 2320.074241 610.777277
-784.176795 2319.992734 611.021797
-786.160117 2319.911228 611.266316
-788.143440 2319.829722 611.510835
-790.126762 2319.748215 611.755354
-792.110084 2319.666709 611.999873
-794.093406 2319.585202 612.244393
-796.076728 2319.503696 612.488912
-798.060051 2319.422190 612.733431
-800.043373 2319.340683 612.977950
-802.026695 2319.259177 613.222469
-804.010017 2319.177671 613.466988
-805.993340 2319.096164 613.711508
-807.976662 2319.014658 613.956027
-809.959984 2318.933151 614.200546
-811.943306 2318.851645 614.445065
-813.926629 2318.770139 614.689584
-815.909951 2318.688632 614.934104
-817.893273 2318.607126 615.178623
-819.876595 2318.525619 615.423142
-821.859917 2318.444113 615.667661
-823.843240 2318.362607 615.912180
-825.826562 2318.281100 616.156699
-827.809884 2318.199594 616.401219
-829.793206 2318.118087 616.645738
-831.776529 2318.036581 616.890257
-833.759851 2317.955075 617.134776
-835.743173 2317.873568 617.379295
-837.726495 2317.792062 617.623814
-839.709818 2317.710555 617.868334
-841.693140 2317.629049 618.112853
-843.676462 2317.547543 618.357372
-845.659784 2317.466036 618.601891
-847.643107 2317.384530 618.846410
-849.626429 2317.303023 619.090930
-851.609751 2317.221517 619.335449
-853.593073 2317.140011 619.579968
-855.576395 2317.058504 619.824487
-857.559718 2316.976998 620.069006
-859.543040 2316.895492 620.313525
-861.526362 2316.813985 620.558045
-863.509684 2316.732479 620.802564
-865.493007 2316.650972 621.047083
-867.476329 2316.569466 621.291602
-869.459651 2316.487960 621.536121
-871.442973 2316.406453 621.780641
-873.426296 2316.324947 622.025160
-875.409618 2316.243440 622.269679
-877.392940 2316.161934 622.514198
-879.376262 2316.080428 622.758717
-881.359584 2315.998921 623.003236
-883.342907 2315.917415 623.247756
-885.326229 2315.835908 623.492275
-887.309551 2315.754402 623.736794
-889.292873 2315.672896 623.981313
-891.276196 2315.591389 624.225832
-893.259518 2315.509883 624.470352
-895.242840 2315.428376 624.714871
-897.226162 2315.346870 624.959390
-899.209485 2315.265364 625.203909
-901.192807 2315.183857 625.448428
-903.176129 2315.102351 625.692947
-905.159451 2315.020844 625.937467
-907.142773 2314.939338 626.181986
-909.126096 2314.857832 626.426505
-911.109418 2314.776325 626.671024
-913.092740 2314.694819 626.915543
-915.076062 2314.613313 627.160062
-917.059385 2314.531806 627.404582
-919.042707 2314.450300 627.649101
-921.026029 2314.368793 627.893620
-923.009351 2314.287287 628.138139
-924.992674 2314.205781 628.382658
-926.975996 2314.124274 628.627178
-928.959318 2314.042768 628.871697
-930.942640 2313.961261 629.116216
-932.925963 2313.879755 629.360735
-934.909285 2313.798249 629.605254
-936.892607 2313.716742 629.849773
-938.875929 2313.635236 630.094293
-940.859251 2313.553729 630.338812
-942.842574 2313.472223 630.583331
-944.825896 2313.390717 630.827850
-946.809218 2313.309210 631.072369
-948.792540 2313.227704 631.316889
-950.775863 2313.146197 631.561408
-952.759185 2313.064691 631.805927
-954.742507 2312.983185 632.050446
-956.725829 2312.901678 632.294965
-958.709152 2312.820172 632.539484
-960.692474 2312.738665 632.784004
-962.675796 2312.657159 633.028523
-964.659118 2312.575653 633.273042
-966.642440 2312.494146 633.517561
-968.625763 2312.412640 633.762080
-970.609085 2312.331133 634.006600
-972.592407 2312.249627 634.251119
-974.575729 2312.168121 634.495638
-976.559052 2312.086614 634.740157
-978.542374 2312.005108 634.984676
-980.525696 2311.923602 635.229195
-982.509018 2311.842095 635.473715
-984.492341 2311.760589 635.718234
-986.475663 2311.679082 635.962753
-988.458985 2311.597576 636.207272
-990.442307 2311.516070 636.451791
-992.425630 2311.434563 636.696310
-994.408952 2311.353057 636.940830
-996.392274 2311.271550 637.185349
-998.375596 2311.190044 637.429868
-1000.358918 2311.108538 637.674387
-1002.342241 2311.027031 637.918906
-1004.325563 2310.945525 638.163426
-1006.308885 2310.864018 638.407945
-1008.292207 2310.782512 638.652464
-1010.275530 2310.701006 638.896983
-1012.258852 2310.619499 639.141502
-1014.242174 2310.537993 639.386021
-1016.225496 2310.456486 639.630541
-1018.208819 2310.374980 639.875060
-1020.192141 2310.293474 640.119579
-1022.175463 2310.211967 640.364098
-1024.158785 2310.130461 640.608617
-1026.142107 2310.048954 640.853137
-1028.125430 2309.967448 641.097656
-1030.108752 2309.885942 641.342175
-1032.092074 2309.804435 641.586694
-1034.075396 2309.722929 641.831213
-1036.058719 2309.641423 642.075732
-1038.042041 2309.559916 642.320252
-1040.025363 2309.478410 642.564771
-1042.008685 2309.396903 642.809290
-1043.992008 2309.315397 643.053809
-1045.975330 2309.233891 643.298328
-1047.958652 2309.152384 643.542848
-1049.941974 2309.070878 643.787367
-1051.925296 2308.989371 644.031886
-1053.908619 2308.907865 644.276405
-1055.891941 2308.826359 644.520924
-1057.875263 2308.744852 644.765443
-1059.858585 2308.663346 645.009963
-1061.841908 2308.581839 645.254482
-1063.825230 2308.500333 645.499001
-1065.808552 2308.418827 645.743520
-1067.791874 2308.337320 645.988039
-1069.775197 2308.255814 646.232558
-1071.758519 2308.174307 646.477078
-1073.741841 2308.092801 646.721597
-1075.725163 2308.011295 646.966116
-1077.708486 2307.929788 647.210635
-1079.691808 2307.848282 647.455154
-1081.675130 2307.766775 647.699674
-1083.658452 2307.685269 647.944193
-1085.641774 2307.603763 648.188712
-1087.625097 2307.522256 648.433231
-1089.608419 2307.440750 648.677750
-1091.591741 2307.359244 648.922269
-1093.575063 2307.277737 649.166789
-1095.558386 2307.196231 649.411308
-1097.541708 2307.114724 649.655827
-1099.525030 2307.033218 649.900346
-1101.508352 2306.951712 650.144865
-1103.491675 2306.870205 650.389385
-1105.474997 2306.788699 650.633904
-1107.458319 2306.707192 650.878423
-1109.441641 2306.625686 651.122942
-1111.424963 2306.544180 651.367461
-1113.408286 2306.462673 651.611980
-1115.391608 2306.381167 651.856500
-1117.374930 2306.299660 652.101019
-1119.358252 2306.218154 652.345538
-1121.341575 2306.136648 652.590057
-1123.324897 2306.055141 652.834576
-1125.308219 2305.973635 653.079096
-1127.291541 2305.892128 653.323615
-1129.274864 2305.810622 653.568134
-1131.258186 2305.729116 653.812653
-1133.241508 2305.647609 654.057172
-1135.224830 2305.566103 654.301691
-1137.208152 2305.484596 654.546211
-1139.191475 2305.403090 654.790730
-1141.174797 2305.321584 655.035249
-1143.158119 2305.240077 655.279768
-1145.141441 2305.158571 655.524287
-1147.124764 2305.077065 655.768806
-1149.108086 2304.995558 656.013326
-1151.091408 2304.914052 656.257845
-1153.074730 2304.832545 656.502364
-1155.058053 2304.751039 656.746883
-1157.041375 2304.669533 656.991402
-1159.024697 2304.588026 657.235922
-1161.008019 2304.506520 657.480441
-1162.991342 2304.425013 657.724960
-1164.974664 2304.343507 657.969479
-1166.957986 2304.262001 658.213998
-1168.941308 2304.180494 658.458517
-1170.924630 2304.098988 658.703037
-1172.907953 2304.017481 658.947556
-1174.891275 2303.935975 659.192075
-1176.874597 2303.854469 659.436594
-1178.857919 2303.772962 659.681113
-1180.841242 2303.691456 659.925633
-1182.824564 2303.609949 660.170152
-1184.807886 2303.528443 660.414671
-1186.791208 2303.446937 660.659190
-1188.774531 2303.365430 660.903709
-1190.757853 2303.283924 661.148228
-1192.741175 2303.202417 661.392748
-1194.724497 2303.120911 661.637267
-1196.707819 2303.039405 661.881786
-1198.691142 2302.957898 662.126305
-1200.674464 2302.876392 662.370824
-1202.657786 2302.794885 662.615344
-1204.641108 2302.713379 662.859863
-1206.624431 2302.631873 663.104382
-1208.607753 2302.550366 663.348901
-1210.591075 2302.468860 663.593420
-1212.574397 2302.387354 663.837939
-1214.557720 2302.305847 664.082459
-1216.541042 2302.224341 664.326978
-1218.524364 2302.142834 664.571497
-1220.507686 2302.061328 664.816016
-1222.491009 2301.979822 665.060535
-1224.474331 2301.898315 665.305054
-1226.457653 2301.816809 665.549574
-1228.440975 2301.735302 665.794093
-1230.424297 2301.653796 666.038612
-1232.407620 2301.572290 666.283131
-1234.390942 2301.490783 666.527650
-1236.374264 2301.409277 666.772170
-1238.357586 2301.327770 667.016689
-1240.340909 2301.246264 667.261208
-1242.324231 2301.164758 667.505727
-1244.307553 2301.083251 667.750246
-1246.290875 2301.001745 667.994765
-1248.274198 2300.920238 668.239285
-1250.257520 2300.838732 668.483804
-1252.240842 2300.757226 668.728323
-1254.224164 2300.675719 668.972842
-1256.207486 2300.594213 669.217361
-1258.190809 2300.512706 669.461881
-1260.174131 2300.431200 669.706400
-1262.157453 2300.349694 669.950919
-1264.140775 2300.268187 670.195438
-1266.124098 2300.186681 670.439957
-1268.107420 2300.105175 670.684476
-1270.090742 2300.023668 670.928996
-1272.074064 2299.942162 671.173515
-1274.057387 2299.860655 671.418034
-1276.040709 2299.779149 671.662553
-1278.024031 2299.697643 671.907072
-1280.007353 2299.616136 672.151591
-1281.990675 2299.534630 672.396111
-1283.973998 2299.453123 672.640630
-1285.957320 2299.371617 672.885149
-1287.940642 2299.290111 673.129668
-1289.923964 2299.208604 673.374187
-1291.907287 2299.127098 673.618707
-1293.890609 2299.045591 673.863226
-1295.873931 2298.964085 674.107745
-1297.857253 2298.882579 674.352264
-1299.840576 2298.801072 674.596783
-1301.823898 2298.719566 674.841302
-1303.807220 2298.638059 675.085822
-1305.790542 2298.556553 675.330341
-1307.773865 2298.475047 675.574860
-1309.757187 2298.393540 675.819379
-1311.740509 2298.312034 676.063898
-1313.723831 2298.230527 676.308418
-1315.707153 2298.149021 676.552937
-1317.690476 2298.067515 676.797456
-1319.673798 2297.986008 677.041975
-1321.657120 2297.904502 677.286494
-1323.640442 2297.822996 677.531013
-1325.623765 2297.741489 677.775533
-1327.607087 2297.659983 678.020052
-1329.590409 2297.578476 678.264571
-1331.573731 2297.496970 678.509090
-1333.557054 2297.415464 678.753609
-1335.540376 2297.333957 678.998129
-1337.523698 2297.252451 679.242648
-1339.507020 2297.170944 679.487167
-1341.490342 2297.089438 679.731686
-1343.473665 2297.007932 679.976205
-1345.456987 2296.926425 680.220724
-1347.440309 2296.844919 680.465244
-1349.423631 2296.763412 680.709763
-1351.406954 2296.681906 680.954282
-1353.390276 2296.600400 681.198801
-1355.373598 2296.518893 681.443320
-1357.356920 2296.437387 681.687839
-1359.340243 2296.355880 681.932359
-1361.323565 2296.274374 682.176878
-1363.306887 2296.192868 682.421397
-1365.290209 2296.111361 682.665916
-1367.273531 2296.029855 682.910435
-1369.256854 2295.948348 683.154955
-1371.240176 2295.866842 683.399474
-1373.223498 2295.785336 683.643993
-1375.206820 2295.703829 683.888512
-1377.190143 2295.622323 684.133031
-1379.173465 2295.540817 684.377550
-1381.156787 2295.459310 684.622070
-1383.140109 2295.377804 684.866589
-1385.123432 2295.296297 685.111108
-1387.106754 2295.214791 685.355627
-1389.090076 2295.133285 685.600146
-1391.073398 2295.051778 685.844666
-1393.056721 2294.970272 686.089185
-1395.040043 2294.888765 686.333704
-1397.023365 2294.807259 686.578223
-1399.006687 2294.725753 686.822742
-1400.990009 2294.644246 687.067261
-1402.973332 2294.562740 687.311781
-1404.956654 2294.481233 687.556300
-1406.939976 2294.399727 687.800819
-1408.923298 2294.318221 688.045338
-1410.906621 2294.236714 688.289857
-1412.889943 2294.155208 688.534377
-1414.873265 2294.073701 688.778896
-1416.856587 2293.992195 689.023415
-1418.839910 2293.910689 689.267934
-1420.823232 2293.829182 689.512453
-1422.806554 2293.747676 689.756972
-1424.789876 2293.666169 690.001492
-1426.773198 2293.584663 690.246011
-1428.756521 2293.503157 690.490530
-1430.739843 2293.421650 690.735049
-1432.723165 2293.340144 690.979568
-1434.706487 2293.258638 691.224087
-1436.689810 2293.177131 691.468607
-1438.673132 2293.095625 691.713126
-1440.656454 2293.014118 691.957645
-1442.639776 2292.932612 692.202164
-1444.623099 2292.851106 692.446683
-1446.606421 2292.769599 692.691203
-1448.589743 2292.688093 692.935722
-1450.573065 2292.606586 693.180241
-1452.556387 2292.525080 693.424760
-1454.539710 2292.443574 693.669279
-1456.523032 2292.362067 693.913798
-1458.506354 2292.280561 694.158318
-1460.489676 2292.199054 694.402837
-1462.472999 2292.117548 694.647356
-1464.456321 2292.036042 694.891875
-1466.439643 2291.954535 695.136394
-1468.422965 2291.873029 695.380914
-1470.406288 2291.791522 695.625433
-1472.389610 2291.710016 695.869952
-1474.372932 2291.628510 696.114471
-1476.356254 2291.547003 696.358990
-1478.339577 2291.465497 696.603509
-1480.322899 2291.383990 696.848029
-1482.306221 2291.302484 697.092548
-1484.289543 2291.220978 697.337067
-1486.272865 2291.139471 697.581586
-1488.256188 2291.057965 697.826105
-1490.239510 2290.976458 698.070625
-1492.222832 2290.894952 698.315144
-1494.206154 2290.813446 698.559663
-1496.189477 2290.731939 698.804182
-1498.172799 2290.650433 699.048701
-1500.156121 2290.568927 699.293220
-1502.139443 2290.487420 699.537740
-1504.122766 2290.405914 699.782259
-1506.106088 2290.324407 700.026778
-1508.089410 2290.242901 700.271297
-1510.072732 2290.161395 700.515816
-1512.056054 2290.079888 700.760335
-1514.039377 2289.998382 701.004855
-1516.022699 2289.916875 701.249374
-1518.006021 2289.835369 701.493893
-1519.989343 2289.753863 701.738412
-1521.972666 2289.672356 701.982931
-1523.955988 2289.590850 702.227451
-1525.939310 2289.509343 702.471970
-1527.922632 2289.427837 702.716489
-1529.905955 2289.346331 702.961008
-1531.889277 2289.264824 703.205527
-1533.872599 2289.183318 703.450046
-1535.855921 2289.101811 703.694566
-1537.839244 2289.020305 703.939085
-1539.822566 2288.938799 704.183604
-1541.805888 2288.857292 704.428123
-1543.789210 2288.775786 704.672642
-1545.772532 2288.694279 704.917162
-1547.755855 2288.612773 705.161681
-1549.739177 2288.531267 705.406200
-1551.722499 2288.449760 705.650719
-1553.705821 2288.368254 705.895238
-1555.689144 2288.286748 706.139757
-1557.672466 2288.205241 706.384277
-1559.655788 2288.123735 706.628796
-1561.639110 2288.042228 706.873315
-1563.622433 2287.960722 707.117834
-1565.605755 2287.879216 707.362353
-1567.589077 2287.797709 707.606873
-1569.572399 2287.716203 707.851392
-1571.555721 2287.634696 708.095911
-1573.539044 2287.553190 708.340430
-1575.522366 2287.471684 708.584949
-1577.505688 2287.390177 708.829468
-1579.489010 2287.308671 709.073988
-1581.472333 2287.227164 709.318507
-1583.455655 2287.145658 709.563026
-1585.438977 2287.064152 709.807545
-1587.422299 2286.982645 710.052064
-1589.405622 2286.901139 710.296583
-1591.388944 2286.819632 710.541103
-1593.372266 2286.738126 710.785622
-1595.355588 2286.656620 711.030141
-1597.338910 2286.575113 711.274660
-1599.322233 2286.493607 711.519179
-1601.305555 2286.412100 711.763699
-1603.288877 2286.330594 712.008218
-1605.272199 2286.249088 712.252737
-1607.255522 2286.167581 712.497256
-1609.238844 2286.086075 712.741775
-1611.222166 2286.004569 712.986294
-1613.205488 2285.923062 713.230814
-1615.188811 2285.841556 713.475333
-1617.172133 2285.760049 713.719852
-1619.155455 2285.678543 713.964371
-1621.138777 2285.597037 714.208890
-1623.122100 2285.515530 714.453410
-1625.105422 2285.434024 714.697929
-1627.088744 2285.352517 714.942448
-1629.072066 2285.271011 715.186967
-1631.055388 2285.189505 715.431486
-1633.038711 2285.107998 715.676005
-1635.022033 2285.026492 715.920525
-1637.005355 2284.944985 716.165044
-1638.988677 2284.863479 716.409563
-1640.972000 2284.781973 716.654082
-1642.955322 2284.700466 716.898601
-1644.938644 2284.618960 717.143121
-1646.921966 2284.537453 717.387640
-1648.905289 2284.455947 717.632159
-1650.888611 2284.374441 717.876678
-1652.871933 2284.292934 718.121197
-1654.855255 2284.211428 718.365716
-1656.838577 2284.129921 718.610236
-1658.821900 2284.048415 718.854755
-1660.805222 2283.966909 719.099274
-1662.788544 2283.885402 719.343793
-1664.771866 2283.803896 719.588312
-1666.755189 2283.722390 719.832831
-1668.738511 2283.640883 720.077351
-1670.721833 2283.559377 720.321870
-1672.705155 2283.477870 720.566389
-1674.688478 2283.396364 720.810908
-1676.671800 2283.314858 721.055427
-1678.655122 2283.233351 721.299947
-1680.638444 2283.151845 721.544466
-1682.621766 2283.070338 721.788985
-1684.605089 2282.988832 722.033504
-1686.588411 2282.907326 722.278023
-1688.571733 2282.825819 722.522542
-1690.555055 2282.744313 722.767062
-1692.538378 2282.662806 723.011581
-1694.521700 2282.581300 723.256100
-1696.505022 2282.499794 723.500619
-1698.488344 2282.418287 723.745138
-1700.471667 2282.336781 723.989658
-1702.454989 2282.255274 724.234177
-1704.438311 2282.173768 724.478696
-1706.421633 2282.092262 724.723215
-1708.404956 2282.010755 724.967734
-1710.388278 2281.929249 725.212253
-1712.371600 2281.847742 725.456773
-1714.354922 2281.766236 725.701292
-1716.338244 2281.684730 725.945811
-1718.321567 2281.603223 726.190330
-1720.304889 2281.521717 726.434849
-1722.288211 2281.440211 726.679368
-1724.271533 2281.358704 726.923888
-1726.254856 2281.277198 727.168407
-1728.238178 2281.195691 727.412926
-1730.221500 2281.114185 727.657445
-1732.204822 2281.032679 727.901964
-1734.188145 2280.951172 728.146484
-1736.171467 2280.869666 728.391003
-1738.154789 2280.788159 728.635522
-1740.138111 2280.706653 728.880041
-1742.121433 2280.625147 729.124560
-1744.104756 2280.543640 729.369079
-1746.088078 2280.462134 729.613599
-1748.071400 2280.380627 729.858118
-1750.054722 2280.299121 730.102637
-1752.038045 2280.217615 730.347156
-1754.021367 2280.136108 730.591675
-1756.004689 2280.054602 730.836195
-1757.988011 2279.973095 731.080714
-1759.971334 2279.891589 731.325233
-1761.954656 2279.810083 731.569752
-1763.937978 2279.728576 731.814271
-1765.921300 2279.647070 732.058790
-1767.904622 2279.565563 732.303310
-1769.887945 2279.484057 732.547829
-1771.871267 2279.402551 732.792348
-1773.854589 2279.321044 733.036867
-1775.837911 2279.239538 733.281386
-1777.821234 2279.158031 733.525906
-1779.804556 2279.076525 733.770425
-1781.787878 2278.995019 734.014944
-1783.771200 2278.913512 734.259463
-1785.754523 2278.832006 734.503982
-1787.737845 2278.750500 734.748501
-1789.721167 2278.668993 734.993021
-1791.704489 2278.587487 735.237540
-1793.687812 2278.505980 735.482059
-1795.671134 2278.424474 735.726578
-1797.654456 2278.342968 735.971097
-1799.637778 2278.261461 736.215616
-1801.621100 2278.179955 736.460136
-1803.604423 2278.098448 736.704655
-1805.587745 2278.016942 736.949174
-1807.571067 2277.935436 737.193693
-1809.554389 2277.853929 737.438212
-1811.537712 2277.772423 737.682732
-1813.521034 2277.690916 737.927251
-1815.504356 2277.609410 738.171770
-1817.487678 2277.527904 738.416289
-1819.471001 2277.446397 738.660808
-1821.454323 2277.364891 738.905327
-1823.437645 2277.283384 739.149847
-1825.420967 2277.201878 739.394366
-1827.404289 2277.120372 739.638885
-1829.387612 2277.038865 739.883404
-1831.370934 2276.957359 740.127923
-1833.354256 2276.875852 740.372443
-1835.337578 2276.794346 740.616962
-1837.320901 2276.712840 740.861481
-1839.304223 2276.631333 741.106000
-1841.287545 2276.549827 741.350519
-1843.270867 2276.468321 741.595038
-1845.254190 2276.386814 741.839558
-1847.237512 2276.305308 742.084077
-1849.220834 2276.223801 742.328596
-1851.204156 2276.142295 742.573115
-1853.187479 2276.060789 742.817634
-1855.170801 2275.979282 743.062154
-1857.154123 2275.897776 743.306673
-1859.137445 2275.816269 743.551192
-1861.120767 2275.734763 743.795711
-1863.104090 2275.653257 744.040230
-1865.087412 2275.571750 744.284749
-1867.070734 2275.490244 744.529269
-1869.054056 2275.408737 744.773788
-1871.037379 2275.327231 745.018307
-1873.020701 2275.245725 745.262826
-1875.004023 2275.164218 745.507345
-1876.987345 2275.082712 745.751864
-1878.970668 2275.001205 745.996384
-1880.953990 2274.919699 746.240903
-1882.937312 2274.838193 746.485422
-1884.920634 2274.756686 746.729941
-1886.903956 2274.675180 746.974460
-1888.887279 2274.593673 747.218980
-1890.870601 2274.512167 747.463499
-1892.853923 2274.430661 747.708018
-1894.837245 2274.349154 747.952537
-1896.820568 2274.267648 748.197056
-1898.803890 2274.186142 748.441575
-1900.787212 2274.104635 748.686095
-1902.770534 2274.023129 748.930614
-1904.753857 2273.941622 749.175133
-1906.737179 2273.860116 749.419652
-1908.720501 2273.778610 749.664171
-1910.703823 2273.697103 749.908691
-1912.687145 2273.615597 750.153210
-1914.670468 2273.534090 750.397729
-1916.653790 2273.452584 750.642248
-1918.637112 2273.371078 750.886767
-1920.620434 2273.289571 751.131286
-1922.603757 2273.208065 751.375806
-1924.587079 2273.126558 751.620325
-1926.570401 2273.045052 751.864844
-1928.553723 2272.963546 752.109363
-1930.537046 2272.882039 752.353882
-1932.520368 2272.800533 752.598402
-1934.503690 2272.719026 752.842921
-1936.487012 2272.637520 753.087440
-1938.470335 2272.556014 753.331959
-1940.453657 2272.474507 753.576478
-1942.436979 2272.393001 753.820997
-1944.420301 2272.311494 754.065517
-1946.403623 2272.229988 754.310036
-1948.386946 2272.148482 754.554555
-1952.000000 2272.000000 755.000000
-1954.000000 2272.000000 755.000000
-1956.000000 2272.000000 755.000000
-1958.000000 2272.000000 755.000000
-1960.000000 2272.000000 755.000000
-1962.000000 2272.000000 755.000000
-1964.000000 2272.000000 755.000000
-1966.000000 2272.000000 755.000000
-1968.000000 2272.000000 755.000000
-1970.000000 2272.000000 755.000000
-1972.000000 2272.000000 755.000000
-1974.000000 2272.000000 755.000000
-1976.000000 2272.000000 755.000000
-1978.000000 2272.000000 755.000000
-1980.000000 2272.000000 755.000000
-1982.000000 2272.000000 755.000000
-1984.000000 2272.000000 755.000000
-1986.000000 2272.000000 755.000000
-1988.000000 2272.000000 755.000000
-1990.000000 2272.000000 755.000000
-1992.000000 2272.000000 755.000000
-1994.000000 2272.000000 755.000000
-1996.000000 2272.000000 755.000000
-1998.000000 2272.000000 755.000000
-2000.000000 2272.000000 755.000000
-2002.000000 2272.000000 755.000000
-2004.000000 2272.000000 755.000000
-2006.000000 2272.000000 755.000000
-2008.000000 2272.000000 755.000000
-2010.000000 2272.000000 755.000000
-2012.000000 2272.000000 755.000000
-2014.000000 2272.000000 755.000000
-2016.000000 2272.000000 755.000000
-2018.000000 2272.000000 755.000000
-2020.000000 2272.000000 755.000000
-2022.000000 2272.000000 755.000000
-2024.000000 2272.000000 755.000000
-2026.000000 2272.000000 755.000000
-2028.000000 2272.000000 755.000000
-2030.000000 2272.000000 755.000000
-2032.000000 2272.000000 755.000000
-2034.000000 2272.000000 755.000000
-2036.000000 2272.000000 755.000000
-2038.000000 2272.000000 755.000000
-2040.000000 2272.000000 755.000000
-2042.000000 2272.000000 755.000000
-2044.000000 2272.000000 755.000000
-2046.000000 2272.000000 755.000000
-2048.000000 2272.000000 755.000000
-2050.000000 2272.000000 755.000000
-2052.000000 2272.000000 755.000000
-2054.000000 2272.000000 755.000000
-2056.000000 2272.000000 755.000000
-2058.000000 2272.000000 755.000000
-2060.000000 2272.000000 755.000000
-2062.000000 2272.000000 755.000000
-2064.000000 2272.000000 755.000000
-2066.000000 2272.000000 755.000000
-2068.000000 2272.000000 755.000000
-2070.000000 2272.000000 755.000000
-2072.000000 2272.000000 755.000000
-2074.000000 2272.000000 755.000000
-2076.000000 2272.000000 755.000000
-2078.000000 2272.000000 755.000000
-2080.000000 2272.000000 755.000000
-2082.000000 2272.000000 755.000000
-2084.000000 2272.000000 755.000000
-2086.000000 2272.000000 755.000000
-2088.000000 2272.000000 755.000000
-2090.000000 2272.000000 755.000000
-2092.000000 2272.000000 755.000000
-2094.000000 2272.000000 755.000000
-2096.000000 2272.000000 755.000000
-2098.000000 2272.000000 755.000000
-2100.000000 2272.000000 755.000000
-2102.000000 2272.000000 755.000000
-2104.000000 2272.000000 755.000000
-2106.000000 2272.000000 755.000000
-2108.000000 2272.000000 755.000000
-2110.000000 2272.000000 755.000000
-2112.000000 2272.000000 755.000000
-2114.000000 2272.000000 755.000000
-2116.000000 2272.000000 755.000000
-2118.000000 2272.000000 755.000000
-2120.000000 2272.000000 755.000000
-2122.000000 2272.000000 755.000000
-2124.000000 2272.000000 755.000000
-2126.000000 2272.000000 755.000000
-2128.000000 2272.000000 755.000000
-2130.000000 2272.000000 755.000000
-2132.000000 2272.000000 755.000000
-2134.000000 2272.000000 755.000000
-2136.000000 2272.000000 755.000000
-2138.000000 2272.000000 755.000000
-2140.000000 2272.000000 755.000000
-2142.000000 2272.000000 755.000000
-2144.000000 2272.000000 755.000000
-2146.000000 2272.000000 755.000000
-2148.000000 2272.000000 755.000000
-2150.000000 2272.000000 755.000000
-2152.000000 2272.000000 755.000000
-2154.000000 2272.000000 755.000000
-2156.000000 2272.000000 755.000000
-2158.000000 2272.000000 755.000000
-2160.000000 2272.000000 755.000000
-2162.000000 2272.000000 755.000000
-2164.000000 2272.000000 755.000000
-2166.000000 2272.000000 755.000000
-2168.000000 2272.000000 755.000000
-2170.000000 2272.000000 755.000000
-2172.000000 2272.000000 755.000000
-2174.000000 2272.000000 755.000000
-2176.000000 2272.000000 755.000000
-2178.000000 2272.000000 755.000000
-2180.000000 2272.000000 755.000000
-2182.000000 2272.000000 755.000000
-2184.000000 2272.000000 755.000000
-2186.000000 2272.000000 755.000000
-2188.000000 2272.000000 755.000000
-2190.000000 2272.000000 755.000000
-2192.000000 2272.000000 755.000000
-2194.000000 2272.000000 755.000000
-2196.000000 2272.000000 755.000000
-2198.000000 2272.000000 755.000000
-2200.000000 2272.000000 755.000000
-2202.000000 2272.000000 755.000000
-2204.000000 2272.000000 755.000000
-2206.000000 2272.000000 755.000000
-2208.000000 2272.000000 755.000000
-2210.000000 2272.000000 755.000000
-2212.000000 2272.000000 755.000000
-2214.000000 2272.000000 755.000000
-2216.000000 2272.000000 755.000000
-2218.000000 2272.000000 755.000000
-2220.000000 2272.000000 755.000000
-2222.000000 2272.000000 755.000000
-2224.000000 2272.000000 755.000000
-2226.000000 2272.000000 755.000000
-2228.000000 2272.000000 755.000000
-2230.000000 2272.000000 755.000000
-2232.000000 2272.000000 755.000000
-2234.000000 2272.000000 755.000000
-2236.000000 2272.000000 755.000000
-2238.000000 2272.000000 755.000000
-2240.000000 2272.000000 755.000000
-2242.000000 2272.000000 755.000000
-2244.000000 2272.000000 755.000000
-2246.000000 2272.000000 755.000000
-2248.000000 2272.000000 755.000000
-2250.000000 2272.000000 755.000000
-2252.000000 2272.000000 755.000000
-2254.000000 2272.000000 755.000000
-2256.000000 2272.000000 755.000000
-2258.000000 2272.000000 755.000000
-2260.000000 2272.000000 755.000000
-2262.000000 2272.000000 755.000000
-2264.000000 2272.000000 755.000000
-2266.000000 2272.000000 755.000000
-2268.000000 2272.000000 755.000000
-2270.000000 2272.000000 755.000000
-2272.000000 2272.000000 755.000000
-2274.000000 2272.000000 755.000000
-2276.000000 2272.000000 755.000000
-2278.000000 2272.000000 755.000000
-2280.000000 2272.000000 755.000000
-2282.000000 2272.000000 755.000000
-2284.000000 2272.000000 755.000000
-2286.000000 2272.000000 755.000000
-2288.000000 2272.000000 755.000000
-2290.000000 2272.000000 755.000000
-2292.000000 2272.000000 755.000000
-2294.000000 2272.000000 755.000000
-2296.000000 2272.000000 755.000000
-2298.000000 2272.000000 755.000000
-2300.000000 2272.000000 755.000000
