-5451.027027 -1773.837838 696.000000
-5452.918919 -1774.486486 696.000000
-5454.810811 -1775.135135 696.000000
-5456.702703 -1775.783784 696.000000
-5458.594595 -1776.432432 696.000000
-5460.486486 -1777.081081 696.000000
-5462.378378 -1777.729730 696.000000
-5464.270270 -1778.378378 696.000000
-5466.162162 -1779.027027 696.000000
-5468.054054 -1779.675676 696.000000
-5469.945946 -1780.324324 696.000000
-5471.837838 -1780.972973 696.000000
-5473.729730 -1781.621622 696.000000
-5475.621622 -1782.270270 696.000000
-5477.513514 -1782.918919 696.000000
-5479.405405 -1783.567568 696.000000
-5481.297297 -1784.216216 696.000000
-5483.189189 -1784.864865 696.000000
-5485.081081 -1785.513514 696.000000
-5486.972973 -1786.162162 696.000000
-5488.864865 -1786.810811 696.000000
-5490.756757 -1787.459459 696.000000
-5492.648649 -1788.108108 696.000000
-5494.540541 -1788.756757 696.000000
-5496.432432 -1789.405405 696.000000
-5498.324324 -1790.054054 696.000000
-5500.216216 -1790.702703 696.000000
-5504.000000 -1792.000000 696.000000
-5505.885981 -1791.334360 696.000000
-5507.771961 -1790.668720 696.000000
-5509.657942 -1790.003079 696.000000
-5511.543923 -1789.337439 696.000000
-5513.429903 -1788.671799 696.000000
-5515.315884 -1788.006159 696.000000
-5517.201865 -1787.340518 696.000000
-5519.087845 -1786.674878 696.000000
-5520.973826 -1786.009238 696.000000
-5522.859807 -1785.343598 696.000000
-5524.745787 -1784.677957 696.000000
-5526.631768 -1784.012317 696.000000
-5528.517749 -1783.346677 696.000000
-5530.403729 -1782.681037 696.000000
-5532.289710 -1782.015396 696.000000
-5534.175691 -1781.349756 696.000000
-5536.061671 -1780.684116 696.000000
-5537.947652 -1780.018476 696.000000
-5539.833633 -1779.352836 696.000000
-5541.719613 -1778.687195 696.000000
-5543.605594 -1778.021555 696.000000
-5545.491575 -1777.355915 696.000000
-5547.377555 -1776.690275 696.000000
-5549.263536 -1776.024634 696.000000
-5551.149517 -1775.358994 696.000000
-5553.035497 -1774.693354 696.000000
-5554.921478 -1774.027714 696.000000
-5556.807459 -1773.362073 696.000000
-5558.693439 -1772.696433 696.000000
-5560.579420 -1772.030793 696.000000
-5562.465401 -1771.365153 696.000000
-5564.351381 -1770.699512 696.000000
-5566.237362 -1770.033872 696.000000
-5568.123343 -1769.368232 696.000000
-5570.009323 -1768.702592 696.000000
-5571.895304 -1768.036952 696.000000
-5573.781285 -1767.371311 696.000000
-5575.667265 -1766.705671 696.000000
-5577.553246 -1766.040031 696.000000
-5579.439227 -1765.374391 696.000000
-5581.325207 -1764.708750 696.000000
-5583.211188 -1764.043110 696.000000
-5585.097169 -1763.377470 696.000000
-5586.983149 -1762.711830 696.000000
-5588.869130 -1762.046189 696.000000
-5590.755111 -1761.380549 696.000000
-5592.641091 -1760.714909 696.000000
-5594.527072 -1760.049269 696.000000
-5596.413053 -1759.383628 696.000000
-5598.299033 -1758.717988 696.000000
-5600.185014 -1758.052348 696.000000
-5602.070995 -1757.386708 696.000000
-5603.956975 -1756.721068 696.000000
-5605.842956 -1756.055427 696.000000
-5607.728937 -1755.389787 696.000000
-5609.614917 -1754.724147 696.000000
-5611.500898 -1754.058507 696.000000
-5613.386879 -1753.392866 696.000000
-5615.272859 -1752.727226 696.000000
-5617.158840 -1752.061586 696.000000
-5619.044821 -1751.395946 696.000000
-5620.930801 -1750.730305 696.000000
-5622.816782 -1750.064665 696.000000
-5624.702763 -1749.399025 696.000000
-5626.588743 -1748.733385 696.000000
-5628.474724 -1748.067744 696.000000
-5630.360705 -1747.402104 696.000000
-5632.246685 -1746.736464 696.000000
-5634.132666 -1746.070824 696.000000
-5636.018647 -1745.405184 696.000000
-5637.904627 -1744.739543 696.000000
-5639.790608 -1744.073903 696.000000
-5641.676589 -1743.408263 696.000000
-5643.562569 -1742.742623 696.000000
-5645.448550 -1742.076982 696.000000
-5647.334531 -1741.411342 696.000000
-5649.220511 -1740.745702 696.000000
-5651.106492 -1740.080062 696.000000
-5652.992473 -1739.414421 696.000000
-5654.878453 -1738.748781 696.000000
-5656.764434 -1738.083141 696.000000
-5658.650415 -1737.417501 696.000000
-5660.536395 -1736.751860 696.000000
-5662.422376 -1736.086220 696.000000
-5664.308357 -1735.420580 696.000000
-5666.194337 -1734.754940 696.000000
-5668.080318 -1734.089300 696.000000
-5669.966299 -1733.423659 696.000000
-5671.852279 -1732.758019 696.000000
-5673.738260 -1732.092379 696.000000
-5675.624241 -1731.426739 696.000000
-5677.510221 -1730.761098 696.000000
-5679.396202 -1730.095458 696.000000
-5681.282183 -1729.429818 696.000000
-5683.168163 -1728.764178 696.000000
-5685.054144 -1728.098537 696.000000
-5686.940125 -1727.432897 696.000000
-5688.826105 -1726.767257 696.000000
-5690.712086 -1726.101617 696.000000
-5692.598067 -1725.435976 696.000000
-5694.484047 -1724.770336 696.000000
-5696.370028 -1724.104696 696.000000
-5698.256009 -1723.439056 696.000000
-5700.141989 -1722.773416 696.000000
-5702.027970 -1722.107775 696.000000
-5703.913951 -1721.442135 696.000000
-5705.799931 -1720.776495 696.000000
-5707.685912 -1720.110855 696.000000
-5709.571893 -1719.445214 696.000000
-5711.457873 -1718.779574 696.000000
-5713.343854 -1718.113934 696.000000
-5715.229835 -1717.448294 696.000000
-5717.115815 -1716.782653 696.000000
-5719.001796 -1716.117013 696.000000
-5720.887777 -1715.451373 696.000000
-5722.773757 -1714.785733 696.000000
-5724.659738 -1714.120092 696.000000
-5726.545719 -1713.454452 696.000000
-5728.431699 -1712.788812 696.000000
-5730.317680 -1712.123172 696.000000
-5732.203661 -1711.457532 696.000000
-5734.089641 -1710.791891 696.000000
-5735.975622 -1710.126251 696.000000
-5737.861603 -1709.460611 696.000000
-5739.747583 -1708.794971 696.000000
-5741.633564 -1708.129330 696.000000
-5743.519545 -1707.463690 696.000000
-5745.405525 -1706.798050 696.000000
-5747.291506 -1706.132410 696.000000
-5749.177487 -1705.466769 696.000000
-5751.063467 -1704.801129 696.000000
-5752.949448 -1704.135489 696.000000
-5754.835429 -1703.469849 696.000000
-5756.721409 -1702.804208 696.000000
-5758.607390 -1702.138568 696.000000
-5760.493371 -1701.472928 696.000000
-5762.379351 -1700.807288 696.000000
-5764.265332 -1700.141648 696.000000
-5766.151313 -1699.476007 696.000000
-5768.037293 -1698.810367 696.000000
-5769.923274 -1698.144727 696.000000
-5771.809255 -1697.479087 696.000000
-5773.695235 -1696.813446 696.000000
-5775.581216 -1696.147806 696.000000
-5777.467197 -1695.482166 696.000000
-5779.353177 -1694.816526 696.000000
-5781.239158 -1694.150885 696.000000
-5783.125139 -1693.485245 696.000000
-5785.011119 -1692.819605 696.000000
-5786.897100 -1692.153965 696.000000
-5788.783081 -1691.488324 696.000000
-5790.669061 -1690.822684 696.000000
-5792.555042 -1690.157044 696.000000
-5794.441023 -1689.491404 696.000000
-5796.327003 -1688.825764 696.000000
-5798.212984 -1688.160123 696.000000
-5800.098965 -1687.494483 696.000000
-5801.984945 -1686.828843 696.000000
-5803.870926 -1686.163203 696.000000
-5805.756907 -1685.497562 696.000000
-5807.642887 -1684.831922 696.000000
-5809.528868 -1684.166282 696.000000
-5811.414849 -1683.500642 696.000000
-5813.300829 -1682.835001 696.000000
-5815.186810 -1682.169361 696.000000
-5817.072791 -1681.503721 696.000000
-5818.958771 -1680.838081 696.000000
-5820.844752 -1680.172440 696.000000
-5822.730733 -1679.506800 696.000000
-5824.616713 -1678.841160 696.000000
-5826.502694 -1678.175520 696.000000
-5828.388675 -1677.509879 696.000000
-5830.274655 -1676.844239 696.000000
-5832.160636 -1676.178599 696.000000
-5834.046617 -1675.512959 696.000000
-5835.932597 -1674.847319 696.000000
-5837.818578 -1674.181678 696.000000
-5839.704559 -1673.516038 696.000000
-5841.590539 -1672.850398 696.000000
-5843.476520 -1672.184758 696.000000
-5845.362501 -1671.519117 696.000000
-5847.248481 -1670.853477 696.000000
-5849.134462 -1670.187837 696.000000
-5851.020443 -1669.522197 696.000000
-5852.906423 -1668.856556 696.000000
-5854.792404 -1668.190916 696.000000
-5856.678385 -1667.525276 696.000000
-5858.564365 -1666.859636 696.000000
-5860.450346 -1666.193995 696.000000
-5862.336327 -1665.528355 696.000000
-5864.222307 -1664.862715 696.000000
-5866.108288 -1664.197075 696.000000
-5867.994269 -1663.531435 696.000000
-5869.880249 -1662.865794 696.000000
-5871.766230 -1662.200154 696.000000
-5873.652211 -1661.534514 696.000000
-5875.538191 -1660.868874 696.000000
-5877.424172 -1660.203233 696.000000
-5879.310153 -1659.537593 696.000000
-5881.196133 -1658.871953 696.000000
-5883.082114 -1658.206313 696.000000
-5884.968095 -1657.540672 696.000000
-5886.854075 -1656.875032 696.000000
-5888.740056 -1656.209392 696.000000
-5890.626037 -1655.543752 696.000000
-5892.512017 -1654.878111 696.000000
-5894.397998 -1654.212471 696.000000
-5896.283979 -1653.546831 696.000000
-5898.169959 -1652.881191 696.000000
-5900.055940 -1652.215551 696.000000
-5901.941921 -1651.549910 696.000000
-5903.827901 -1650.884270 696.000000
-5905.713882 -1650.218630 696.000000
-5907.599863 -1649.552990 696.000000
-5909.485843 -1648.887349 696.000000
-5911.371824 -1648.221709 696.000000
-5913.257805 -1647.556069 696.000000
-5915.143785 -1646.890429 696.000000
-5917.029766 -1646.224788 696.000000
-5918.915747 -1645.559148 696.000000
-5920.801727 -1644.893508 696.000000
-5922.687708 -1644.227868 696.000000
-5924.573689 -1643.562227 696.000000
-5926.459669 -1642.896587 696.000000
-5928.345650 -1642.230947 696.000000
-5930.231631 -1641.565307 696.000000
-5932.117611 -1640.899667 696.000000
-5934.003592 -1640.234026 696.000000
-5935.889573 -1639.568386 696.000000
-5937.775553 -1638.902746 696.000000
-5939.661534 -1638.237106 696.000000
-5941.547515 -1637.571465 696.000000
-5943.433495 -1636.905825 696.000000
-5945.319476 -1636.240185 696.000000
-5947.205457 -1635.574545 696.000000
-5949.091437 -1634.908904 696.000000
-5950.977418 -1634.243264 696.000000
-5952.863399 -1633.577624 696.000000
-5954.749379 -1632.911984 696.000000
-5956.635360 -1632.246343 696.000000
-5958.521341 -1631.580703 696.000000
-5960.407321 -1630.915063 696.000000
-5962.293302 -1630.249423 696.000000
-5964.179283 -1629.583783 696.000000
-5966.065263 -1628.918142 696.000000
-5967.951244 -1628.252502 696.000000
-5969.837225 -1627.586862 696.000000
-5971.723205 -1626.921222 696.000000
-5973.609186 -1626.255581 696.000000
-5975.495167 -1625.589941 696.000000
-5977.381147 -1624.924301 696.000000
-5979.267128 -1624.258661 696.000000
-5981.153109 -1623.593020 696.000000
-5983.039089 -1622.927380 696.000000
-5984.925070 -1622.261740 696.000000
-5986.811051 -1621.596100 696.000000
-5988.697031 -1620.930459 696.000000
-5990.583012 -1620.264819 696.000000
-5992.468993 -1619.599179 696.000000
-5994.354973 -1618.933539 696.000000
-5996.240954 -1618.267899 696.000000
-5998.126935 -1617.602258 696.000000
-6000.012915 -1616.936618 696.000000
-6001.898896 -1616.270978 696.000000
-6003.784877 -1615.605338 696.000000
-6005.670857 -1614.939697 696.000000
-6007.556838 -1614.274057 696.000000
-6009.442819 -1613.608417 696.000000
-6011.328799 -1612.942777 696.000000
-6013.214780 -1612.277136 696.000000
-6015.100761 -1611.611496 696.000000
-6016.986741 -1610.945856 696.000000
-6018.872722 -1610.280216 696.000000
-6020.758703 -1609.614575 696.000000
-6022.644683 -1608.948935 696.000000
-6024.530664 -1608.283295 696.000000
-6026.416645 -1607.617655 696.000000
-6028.302625 -1606.952015 696.000000
-6030.188606 -1606.286374 696.000000
-6032.074587 -1605.620734 696.000000
-6033.960567 -1604.955094 696.000000
-6035.846548 -1604.289454 696.000000
-6037.732529 -1603.623813 696.000000
-6039.618509 -1602.958173 696.000000
-6041.504490 -1602.292533 696.000000
-6043.390471 -1601.626893 696.000000
-6045.276451 -1600.961252 696.000000
-6048.000000 -1600.000000 696.000000
-6049.807476 -1599.143827 696.000000
-6051.614951 -1598.287655 696.000000
-6053.422427 -1597.431482 696.000000
-6055.229903 -1596.575309 696.000000
-6057.037378 -1595.719137 696.000000
-6058.844854 -1594.862964 696.000000
-6060.652330 -1594.006791 696.000000
-6062.459805 -1593.150618 696.000000
-6064.267281 -1592.294446 696.000000
-6066.074757 -1591.438273 696.000000
-6067.882232 -1590.582100 696.000000
-6069.689708 -1589.725928 696.000000
-6071.497184 -1588.869755 696.000000
-6073.304659 -1588.013582 696.000000
-6075.112135 -1587.157410 696.000000
-6076.919611 -1586.301237 696.000000
-6078.727087 -1585.445064 696.000000
-6080.534562 -1584.588892 696.000000
-6082.342038 -1583.732719 696.000000
-6084.149514 -1582.876546 696.000000
-6085.956989 -1582.020374 696.000000
-6087.764465 -1581.164201 696.000000
-6089.571941 -1580.308028 696.000000
-6091.379416 -1579.451855 696.000000
-6093.186892 -1578.595683 696.000000
-6094.994368 -1577.739510 696.000000
-6096.801843 -1576.883337 696.000000
-6098.609319 -1576.027165 696.000000
-6100.416795 -1575.170992 696.000000
-6102.224270 -1574.314819 696.000000
-6104.031746 -1573.458647 696.000000
-6105.839222 -1572.602474 696.000000
-6107.646697 -1571.746301 696.000000
-6109.454173 -1570.890129 696.000000
-6111.261649 -1570.033956 696.000000
-6113.069124 -1569.177783 696.000000
-6114.876600 -1568.321610 696.000000
-6116.684076 -1567.465438 696.000000
-6118.491551 -1566.609265 696.000000
-6120.299027 -1565.753092 696.000000
-6122.106503 -1564.896920 696.000000
-6123.913978 -1564.040747 696.000000
-6125.721454 -1563.184574 696.000000
-6127.528930 -1562.328402 696.000000
-6129.336406 -1561.472229 696.000000
-6131.143881 -1560.616056 696.000000
-6132.951357 -1559.759884 696.000000
-6134.758833 -1558.903711 696.000000
-6136.566308 -1558.047538 696.000000
-6138.373784 -1557.191366 696.000000
-6140.181260 -1556.335193 696.000000
-6141.988735 -1555.479020 696.000000
-6143.796211 -1554.622847 696.000000
-6145.603687 -1553.766675 696.000000
-6147.411162 -1552.910502 696.000000
-6149.218638 -1552.054329 696.000000
-6151.026114 -1551.198157 696.000000
-6152.833589 -1550.341984 696.000000
-6154.641065 -1549.485811 696.000000
-6156.448541 -1548.629639 696.000000
-6158.256016 -1547.773466 696.000000
-6160.063492 -1546.917293 696.000000
-6161.870968 -1546.061121 696.000000
-6163.678443 -1545.204948 696.000000
-6165.485919 -1544.348775 696.000000
-6167.293395 -1543.492602 696.000000
-6169.100870 -1542.636430 696.000000
-6170.908346 -1541.780257 696.000000
-6172.715822 -1540.924084 696.000000
-6174.523297 -1540.067912 696.000000
-6176.330773 -1539.211739 696.000000
-6178.138249 -1538.355566 696.000000
-6179.945724 -1537.499394 696.000000
-6181.753200 -1536.643221 696.000000
-6183.560676 -1535.787048 696.000000
-6185.368152 -1534.930876 696.000000
-6187.175627 -1534.074703 696.000000
-6188.983103 -1533.218530 696.000000
-6190.790579 -1532.362358 696.000000
-6192.598054 -1531.506185 696.000000
-6194.405530 -1530.650012 696.000000
-6196.213006 -1529.793839 696.000000
-6198.020481 -1528.937667 696.000000
-6199.827957 -1528.081494 696.000000
-6201.635433 -1527.225321 696.000000
-6203.442908 -1526.369149 696.000000
-6205.250384 -1525.512976 696.000000
-6207.057860 -1524.656803 696.000000
-6208.865335 -1523.800631 696.000000
-6210.672811 -1522.944458 696.000000
-6212.480287 -1522.088285 696.000000
-6214.287762 -1521.232113 696.000000
-6216.095238 -1520.375940 696.000000
-6217.902714 -1519.519767 696.000000
-6219.710189 -1518.663594 696.000000
-6221.517665 -1517.807422 696.000000
-6223.325141 -1516.951249 696.000000
-6225.132616 -1516.095076 696.000000
-6226.940092 -1515.238904 696.000000
-6228.747568 -1514.382731 696.000000
-6230.555043 -1513.526558 696.000000
-6232.362519 -1512.670386 696.000000
-6234.169995 -1511.814213 696.000000
-6235.977470 -1510.958040 696.000000
-6237.784946 -1510.101868 696.000000
-6239.592422 -1509.245695 696.000000
-6241.399898 -1508.389522 696.000000
-6243.207373 -1507.533350 696.000000
-6245.014849 -1506.677177 696.000000
-6246.822325 -1505.821004 696.000000
-6248.629800 -1504.964831 696.000000
-6250.437276 -1504.108659 696.000000
-6252.244752 -1503.252486 696.000000
-6254.052227 -1502.396313 696.000000
-6255.859703 -1501.540141 696.000000
-6257.667179 -1500.683968 696.000000
-6259.474654 -1499.827795 696.000000
-6261.282130 -1498.971623 696.000000
-6263.089606 -1498.115450 696.000000
-6264.897081 -1497.259277 696.000000
-6266.704557 -1496.403105 696.000000
-6268.512033 -1495.546932 696.000000
-6270.319508 -1494.690759 696.000000
-6272.126984 -1493.834587 696.000000
-6273.934460 -1492.978414 696.000000
-6275.741935 -1492.122241 696.000000
-6277.549411 -1491.266068 696.000000
-6279.356887 -1490.409896 696.000000
-6281.164362 -1489.553723 696.000000
-6282.971838 -1488.697550 696.000000
-6284.779314 -1487.841378 696.000000
-6286.586789 -1486.985205 696.000000
-6288.394265 -1486.129032 696.000000
-6290.201741 -1485.272860 696.000000
-6292.009217 -1484.416687 696.000000
-6293.816692 -1483.560514 696.000000
-6295.624168 -1482.704342 696.000000
-6297.431644 -1481.848169 696.000000
-6299.239119 -1480.991996 696.000000
-6301.046595 -1480.135823 696.000000
-6302.854071 -1479.279651 696.000000
-6304.661546 -1478.423478 696.000000
-6306.469022 -1477.567305 696.000000
-6308.276498 -1476.711133 696.000000
-6310.083973 -1475.854960 696.000000
-6311.891449 -1474.998787 696.000000
-6313.698925 -1474.142615 696.000000
-6315.506400 -1473.286442 696.000000
-6317.313876 -1472.430269 696.000000
-6319.121352 -1471.574097 696.000000
-6320.928827 -1470.717924 696.000000
-6322.736303 -1469.861751 696.000000
-6324.543779 -1469.005579 696.000000
-6326.351254 -1468.149406 696.000000
-6328.158730 -1467.293233 696.000000
-6329.966206 -1466.437060 696.000000
-6331.773681 -1465.580888 696.000000
-6333.581157 -1464.724715 696.000000
-6335.388633 -1463.868542 696.000000
-6337.196108 -1463.012370 696.000000
-6339.003584 -1462.156197 696.000000
-6340.811060 -1461.300024 696.000000
-6342.618535 -1460.443852 696.000000
-6344.426011 -1459.587679 696.000000
-6346.233487 -1458.731506 696.000000
-6348.040963 -1457.875334 696.000000
-6349.848438 -1457.019161 696.000000
-6351.655914 -1456.162988 696.000000
-6353.463390 -1455.306815 696.000000
-6355.270865 -1454.450643 696.000000
-6357.078341 -1453.594470 696.000000
-6358.885817 -1452.738297 696.000000
-6360.693292 -1451.882125 696.000000
-6362.500768 -1451.025952 696.000000
-6364.308244 -1450.169779 696.000000
-6366.115719 -1449.313607 696.000000
-6367.923195 -1448.457434 696.000000
-6369.730671 -1447.601261 696.000000
-6371.538146 -1446.745089 696.000000
-6373.345622 -1445.888916 696.000000
-6375.153098 -1445.032743 696.000000
-6376.960573 -1444.176571 696.000000
-6378.768049 -1443.320398 696.000000
-6380.575525 -1442.464225 696.000000
-6382.383000 -1441.608052 696.000000
-6384.190476 -1440.751880 696.000000
-6385.997952 -1439.895707 696.000000
-6387.805427 -1439.039534 696.000000
-6389.612903 -1438.183362 696.000000
-6391.420379 -1437.327189 696.000000
-6393.227854 -1436.471016 696.000000
-6395.035330 -1435.614844 696.000000
-6396.842806 -1434.758671 696.000000
-6398.650281 -1433.902498 696.000000
-6400.457757 -1433.046326 696.000000
-6402.265233 -1432.190153 696.000000
-6404.072709 -1431.333980 696.000000
-6405.880184 -1430.477807 696.000000
-6407.687660 -1429.621635 696.000000
-6409.495136 -1428.765462 696.000000
-6411.302611 -1427.909289 696.000000
-6413.110087 -1427.053117 696.000000
-6414.917563 -1426.196944 696.000000
-6416.725038 -1425.340771 696.000000
-6418.532514 -1424.484599 696.000000
-6420.339990 -1423.628426 696.000000
-6422.147465 -1422.772253 696.000000
-6423.954941 -1421.916081 696.000000
-6425.762417 -1421.059908 696.000000
-6427.569892 -1420.203735 696.000000
-6429.377368 -1419.347563 696.000000
-6431.184844 -1418.491390 696.000000
-6432.992319 -1417.635217 696.000000
-6434.799795 -1416.779044 696.000000
-6436.607271 -1415.922872 696.000000
-6438.414746 -1415.066699 696.000000
-6440.222222 -1414.210526 696.000000
-6442.029698 -1413.354354 696.000000
-6443.837173 -1412.498181 696.000000
-6445.644649 -1411.642008 696.000000
-6447.452125 -1410.785836 696.000000
-6449.259600 -1409.929663 696.000000
-6451.067076 -1409.073490 696.000000
-6452.874552 -1408.217318 696.000000
-6454.682028 -1407.361145 696.000000
-6456.489503 -1406.504972 696.000000
-6458.296979 -1405.648799 696.000000
-6460.104455 -1404.792627 696.000000
-6461.911930 -1403.936454 696.000000
-6463.719406 -1403.080281 696.000000
-6465.526882 -1402.224109 696.000000
-6467.334357 -1401.367936 696.000000
-6469.141833 -1400.511763 696.000000
-6470.949309 -1399.655591 696.000000
-6472.756784 -1398.799418 696.000000
-6474.564260 -1397.943245 696.000000
-6476.371736 -1397.087073 696.000000
-6478.179211 -1396.230900 696.000000
-6479.986687 -1395.374727 696.000000
-6481.794163 -1394.518555 696.000000
-6483.601638 -1393.662382 696.000000
-6485.409114 -1392.806209 696.000000
-6487.216590 -1391.950036 696.000000
-6489.024065 -1391.093864 696.000000
-6490.831541 -1390.237691 696.000000
-6492.639017 -1389.381518 696.000000
-6494.446492 -1388.525346 696.000000
-6496.253968 -1387.669173 696.000000
-6498.061444 -1386.813000 696.000000
-6499.868919 -1385.956828 696.000000
-6501.676395 -1385.100655 696.000000
-6503.483871 -1384.244482 696.000000
-6505.291346 -1383.388310 696.000000
-6507.098822 -1382.532137 696.000000
-6508.906298 -1381.675964 696.000000
-6510.713774 -1380.819791 696.000000
-6512.521249 -1379.963619 696.000000
-6514.328725 -1379.107446 696.000000
-6516.136201 -1378.251273 696.000000
-6517.943676 -1377.395101 696.000000
-6519.751152 -1376.538928 696.000000
-6521.558628 -1375.682755 696.000000
-6523.366103 -1374.826583 696.000000
-6525.173579 -1373.970410 696.000000
-6526.981055 -1373.114237 696.000000
-6528.788530 -1372.258065 696.000000
-6530.596006 -1371.401892 696.000000
-6532.403482 -1370.545719 696.000000
-6534.210957 -1369.689547 696.000000
-6536.018433 -1368.833374 696.000000
-6537.825909 -1367.977201 696.000000
-6539.633384 -1367.121028 696.000000
-6541.440860 -1366.264856 696.000000
-6543.248336 -1365.408683 696.000000
-6545.055811 -1364.552510 696.000000
-6546.863287 -1363.696338 696.000000
-6548.670763 -1362.840165 696.000000
-6550.478238 -1361.983992 696.000000
-6552.285714 -1361.127820 696.000000
-6554.093190 -1360.271647 696.000000
-6555.900665 -1359.415474 696.000000
-6557.708141 -1358.559302 696.000000
-6559.515617 -1357.703129 696.000000
-6561.323092 -1356.846956 696.000000
-6563.130568 -1355.990783 696.000000
-6564.938044 -1355.134611 696.000000
-6566.745520 -1354.278438 696.000000
-6568.552995 -1353.422265 696.000000
-6570.360471 -1352.566093 696.000000
-6572.167947 -1351.709920 696.000000
-6573.975422 -1350.853747 696.000000
-6575.782898 -1349.997575 696.000000
-6577.590374 -1349.141402 696.000000
-6579.397849 -1348.285229 696.000000
-6581.205325 -1347.429057 696.000000
-6583.012801 -1346.572884 696.000000
-6584.820276 -1345.716711 696.000000
-6586.627752 -1344.860539 696.000000
-6588.435228 -1344.004366 696.000000
-6590.242703 -1343.148193 696.000000
-6592.050179 -1342.292020 696.000000
-6593.857655 -1341.435848 696.000000
-6595.665130 -1340.579675 696.000000
-6597.472606 -1339.723502 696.000000
-6599.280082 -1338.867330 696.000000
-6601.087557 -1338.011157 696.000000
-6602.895033 -1337.154984 696.000000
-6604.702509 -1336.298812 696.000000
-6606.509984 -1335.442639 696.000000
-6608.317460 -1334.586466 696.000000
-6610.124936 -1333.730294 696.000000
-6611.932411 -1332.874121 696.000000
-6613.739887 -1332.017948 696.000000
-6615.547363 -1331.161776 696.000000
-6617.354839 -1330.305603 696.000000
-6619.162314 -1329.449430 696.000000
-6620.969790 -1328.593257 696.000000
-6622.777266 -1327.737085 696.000000
-6624.584741 -1326.880912 696.000000
-6626.392217 -1326.024739 696.000000
-6628.199693 -1325.168567 696.000000
-6630.007168 -1324.312394 696.000000
-6631.814644 -1323.456221 696.000000
-6633.622120 -1322.600049 696.000000
-6635.429595 -1321.743876 696.000000
-6637.237071 -1320.887703 696.000000
-6639.044547 -1320.031531 696.000000
-6640.852022 -1319.175358 696.000000
-6642.659498 -1318.319185 696.000000
-6644.466974 -1317.463012 696.000000
-6646.274449 -1316.606840 696.000000
-6648.081925 -1315.750667 696.000000
-6649.889401 -1314.894494 696.000000
-6651.696876 -1314.038322 696.000000
-6653.504352 -1313.182149 696.000000
-6656.000000 -1312.000000 696.000000
-6658.000000 -1312.000000 696.000000
-6660.000000 -1312.000000 696.000000
-6662.000000 -1312.000000 696.000000
-6664.000000 -1312.000000 696.000000
-6666.000000 -1312.000000 696.000000
-6668.000000 -1312.000000 696.000000
-6670.000000 -1312.000000 696.000000
-6672.000000 -1312.000000 696.000000
-6674.000000 -1312.000000 696.000000
-6676.000000 -1312.000000 696.000000
-6678.000000 -1312.000000 696.000000
-6680.000000 -1312.000000 696.000000
-6682.000000 -1312.000000 696.000000
-6684.000000 -1312.000000 696.000000
-6686.000000 -1312.000000 696.000000
-6688.000000 -1312.000000 696.000000
-6690.000000 -1312.000000 696.000000
-6692.000000 -1312.000000 696.000000
-6694.000000 -1312.000000 696.000000
-6696.000000 -1312.000000 696.000000
-6698.000000 -1312.000000 696.000000
-6700.000000 -1312.000000 696.000000
-6702.000000 -1312.000000 696.000000
-6704.000000 -1312.000000 696.000000
-6706.000000 -1312.000000 696.000000
-6708.000000 -1312.000000 696.000000
-6710.000000 -1312.000000 696.000000
-6712.000000 -1312.000000 696.000000
-6714.000000 -1312.000000 696.000000
-6716.000000 -1312.000000 696.000000
-6718.000000 -1312.000000 696.000000
-6720.000000 -1312.000000 696.000000
-6722.000000 -1312.000000 696.000000
-6724.000000 -1312.000000 696.000000
-6726.000000 -1312.000000 696.000000
-6728.000000 -1312.000000 696.000000
-6730.000000 -1312.000000 696.000000
-6732.000000 -1312.000000 696.000000
-6734.000000 -1312.000000 696.000000
-6736.000000 -1312.000000 696.000000
-6738.000000 -1312.000000 696.000000
-6740.000000 -1312.000000 696.000000
-6742.000000 -1312.000000 696.000000
-6744.000000 -1312.000000 696.000000
-6746.000000 -1312.000000 696.000000
-6748.000000 -1312.000000 696.000000
-6750.000000 -1312.000000 696.000000
-6752.000000 -1312.000000 696.000000
-6754.000000 -1312.000000 696.000000
-6756.000000 -1312.000000 696.000000
-6758.000000 -1312.000000 696.000000
-6760.000000 -1312.000000 696.000000
-6762.000000 -1312.000000 696.000000
-6764.000000 -1312.000000 696.000000
-6766.000000 -1312.000000 696.000000
-6768.000000 -1312.000000 696.000000
-6770.000000 -1312.000000 696.000000
-6772.000000 -1312.000000 696.000000
-6774.000000 -1312.000000 696.000000
-6776.000000 -1312.000000 696.000000
-6778.000000 -1312.000000 696.000000
-6780.000000 -1312.000000 696.000000
-6782.000000 -1312.000000 696.000000
-6784.000000 -1312.000000 696.000000
-6786.000000 -1312.000000 696.000000
-6788.000000 -1312.000000 696.000000
-6790.000000 -1312.000000 696.000000
-6792.000000 -1312.000000 696.000000
-6794.000000 -1312.000000 696.000000
-6796.000000 -1312.000000 696.000000
-6798.000000 -1312.000000 696.000000
-6800.000000 -1312.000000 696.000000
-6802.000000 -1312.000000 696.000000
-6804.000000 -1312.000000 696.000000
-6806.000000 -1312.000000 696.000000
-6808.000000 -1312.000000 696.000000
-6810.000000 -1312.000000 696.000000
-6812.000000 -1312.000000 696.000000
-6814.000000 -1312.000000 696.000000
-6816.000000 -1312.000000 696.000000
-6818.000000 -1312.000000 696.000000
-6820.000000 -1312.000000 696.000000
-6822.000000 -1312.000000 696.000000
-6824.000000 -1312.000000 696.000000
-6826.000000 -1312.000000 696.000000
-6828.000000 -1312.000000 696.000000
-6830.000000 -1312.000000 696.000000
-6832.000000 -1312.000000 696.000000
-6834.000000 -1312.000000 696.000000
-6836.000000 -1312.000000 696.000000
-6838.000000 -1312.000000 696.000000
-6840.000000 -1312.000000 696.000000
-6842.000000 -1312.000000 696.000000
-6844.000000 -1312.000000 696.000000
-6846.000000 -1312.000000 696.000000
-6848.000000 -1312.000000 696.000000
-6850.000000 -1312.000000 696.000000
-6852.000000 -1312.000000 696.000000
-6854.000000 -1312.000000 696.000000
-6856.000000 -1312.000000 696.000000
-6858.000000 -1312.000000 696.000000
-6860.000000 -1312.000000 696.000000
-6862.000000 -1312.000000 696.000000
-6864.000000 -1312.000000 696.000000
-6866.000000 -1312.000000 696.000000
-6868.000000 -1312.000000 696.000000
-6870.000000 -1312.000000 696.000000
-6872.000000 -1312.000000 696.000000
-6874.000000 -1312.000000 696.000000
-6876.000000 -1312.000000 696.000000
-6878.000000 -1312.000000 696.000000
-6880.000000 -1312.000000 696.000000
-6882.000000 -1312.000000 696.000000
-6884.000000 -1312.000000 696.000000
-6886.000000 -1312.000000 696.000000
-6888.000000 -1312.000000 696.000000
-6890.000000 -1312.000000 696.000000
-6892.000000 -1312.000000 696.000000
-6894.000000 -1312.000000 696.000000
-6896.000000 -1312.000000 696.000000
-6898.000000 -1312.000000 696.000000
-6900.000000 -1312.000000 696.000000
-6902.000000 -1312.000000 696.000000
-6904.000000 -1312.000000 696.000000
-6906.000000 -1312.000000 696.000000
-6908.000000 -1312.000000 696.000000
-6910.000000 -1312.000000 696.000000
-6912.000000 -1312.000000 696.000000
-6914.000000 -1312.000000 696.000000
-6916.000000 -1312.000000 696.000000
-6918.000000 -1312.000000 696.000000
-6920.000000 -1312.000000 696.000000
-6922.000000 -1312.000000 696.000000
-6924.000000 -1312.000000 696.000000
-6926.000000 -1312.000000 696.000000
-6928.000000 -1312.000000 696.000000
-6930.000000 -1312.000000 696.000000
-6932.000000 -1312.000000 696.000000
-6934.000000 -1312.000000 696.000000
-6936.000000 -1312.000000 696.000000
-6938.000000 -1312.000000 696.000000
-6940.000000 -1312.000000 696.000000
-6942.000000 -1312.000000 696.000000
-6944.000000 -1312.000000 696.000000
-6946.000000 -1312.000000 696.000000
-6948.000000 -1312.000000 696.000000
-6950.000000 -1312.000000 696.000000
-6952.000000 -1312.000000 696.000000
-6954.000000 -1312.000000 696.000000
-6956.000000 -1312.000000 696.000000
-6958.000000 -1312.000000 696.000000
-6960.000000 -1312.000000 696.000000
-6962.000000 -1312.000000 696.000000
-6964.000000 -1312.000000 696.000000
-6966.000000 -1312.000000 696.000000
-6968.000000 -1312.000000 696.000000
-6970.000000 -1312.000000 696.000000
-6972.000000 -1312.000000 696.000000
-6974.000000 -1312.000000 696.000000
-6976.000000 -1312.000000 696.000000
-6978.000000 -1312.000000 696.000000
-6980.000000 -1312.000000 696.000000
-6982.000000 -1312.000000 696.000000
-6984.000000 -1312.000000 696.000000
-6986.000000 -1312.000000 696.000000
-6988.000000 -1312.000000 696.000000
-6990.000000 -1312.000000 696.000000
-6992.000000 -1312.000000 696.000000
-6994.000000 -1312.000000 696.000000
-6996.000000 -1312.000000 696.000000
-6998.000000 -1312.000000 696.000000
-7000.000000 -1312.000000 696.000000
-7002.000000 -1312.000000 696.000000
-7004.000000 -1312.000000 696.000000
-7006.000000 -1312.000000 696.000000
-7008.000000 -1312.000000 696.000000
-7010.000000 -1312.000000 696.000000
-7012.000000 -1312.000000 696.000000
-7014.000000 -1312.000000 696.000000
-7016.000000 -1312.000000 696.000000
-7018.000000 -1312.000000 696.000000
-7020.000000 -1312.000000 696.000000
-7022.000000 -1312.000000 696.000000
-7024.000000 -1312.000000 696.000000
-7026.000000 -1312.000000 696.000000
-7028.000000 -1312.000000 696.000000
-7030.000000 -1312.000000 696.000000
-7032.000000 -1312.000000 696.000000
-7034.000000 -1312.000000 696.000000
-7036.000000 -1312.000000 696.000000
-7038.000000 -1312.000000 696.000000
-7040.000000 -1312.000000 696.000000
-7042.000000 -1312.000000 696.000000
-7044.000000 -1312.000000 696.000000
-7046.000000 -1312.000000 696.000000
-7048.000000 -1312.000000 696.000000
-7050.000000 -1312.000000 696.000000
-7052.000000 -1312.000000 696.000000
-7054.000000 -1312.000000 696.000000
-7056.000000 -1312.000000 696.000000
-7058.000000 -1312.000000 696.000000
-7060.000000 -1312.000000 696.000000
-7062.000000 -1312.000000 696.000000
-7064.000000 -1312.000000 696.000000
-7066.000000 -1312.000000 696.000000
-7068.000000 -1312.000000 696.000000
-7070.000000 -1312.000000 696.000000
-7072.000000 -1312.000000 696.000000
-7074.000000 -1312.000000 696.000000
-7076.000000 -1312.000000 696.000000
-7078.000000 -1312.000000 696.000000
-7080.000000 -1312.000000 696.000000
-7082.000000 -1312.000000 696.000000
-7084.000000 -1312.000000 696.000000
-7086.000000 -1312.000000 696.000000
-7088.000000 -1312.000000 696.000000
-7090.000000 -1312.000000 696.000000
-7092.000000 -1312.000000 696.000000
-7094.000000 -1312.000000 696.000000
-7096.000000 -1312.000000 696.000000
-7098.000000 -1312.000000 696.000000
-7100.000000 -1312.000000 696.000000
-7102.000000 -1312.000000 696.000000
-7104.000000 -1312.000000 696.000000
-7106.000000 -1312.000000 696.000000
-7108.000000 -1312.000000 696.000000
-7110.000000 -1312.000000 696.000000
-7112.000000 -1312.000000 696.000000
-7114.000000 -1312.000000 696.000000
-7116.000000 -1312.000000 696.000000
-7118.000000 -1312.000000 696.000000
-7120.000000 -1312.000000 696.000000
-7122.000000 -1312.000000 696.000000
-7124.000000 -1312.000000 696.000000
-7126.000000 -1312.000000 696.000000
-7128.000000 -1312.000000 696.000000
-7130.000000 -1312.000000 696.000000
-7132.000000 -1312.000000 696.000000
-7134.000000 -1312.000000 696.000000
-7136.000000 -1312.000000 696.000000
-7138.000000 -1312.000000 696.000000
-7140.000000 -1312.000000 696.000000
-7142.000000 -1312.000000 696.000000
-7144.000000 -1312.000000 696.000000
-7146.000000 -1312.000000 696.000000
-7148.000000 -1312.000000 696.000000
-7150.000000 -1312.000000 696.000000
-7152.000000 -1312.000000 696.000000
-7154.000000 -1312.000000 696.000000
-7156.000000 -1312.000000 696.000000
-7158.000000 -1312.000000 696.000000
-7160.000000 -1312.000000 696.000000
-7162.000000 -1312.000000 696.000000
-7164.000000 -1312.000000 696.000000
-7166.000000 -1312.000000 696.000000
-7168.000000 -1312.000000 696.000000
-7170.000000 -1312.000000 696.000000
-7172.000000 -1312.000000 696.000000
-7174.000000 -1312.000000 696.000000
-7176.000000 -1312.000000 696.000000
-7178.000000 -1312.000000 696.000000
-7180.000000 -1312.000000 696.000000
-7182.000000 -1312.000000 696.000000
-7184.000000 -1312.000000 696.000000
-7186.000000 -1312.000000 696.000000
-7188.000000 -1312.000000 696.000000
-7190.000000 -1312.000000 696.000000
-7192.000000 -1312.000000 696.000000
-7194.000000 -1312.000000 696.000000
-7196.000000 -1312.000000 696.000000
-7198.000000 -1312.000000 696.000000
-7200.000000 -1312.000000 696.000000
-7202.000000 -1312.000000 696.000000
-7204.000000 -1312.000000 696.000000
-7206.000000 -1312.000000 696.000000
-7208.000000 -1312.000000 696.000000
-7210.000000 -1312.000000 696.000000
-7212.000000 -1312.000000 696.000000
-7214.000000 -1312.000000 696.000000
-7216.000000 -1312.000000 696.000000
-7218.000000 -1312.000000 696.000000
-7220.000000 -1312.000000 696.000000
-7222.000000 -1312.000000 696.000000
-7224.000000 -1312.000000 696.000000
-7226.000000 -1312.000000 696.000000
-7228.000000 -1312.000000 696.000000
-7232.000000 -1312.000000 696.000000
-7234.000000 -1312.000000 696.000000
-7236.000000 -1312.000000 696.000000
-7238.000000 -1312.000000 696.000000
-7240.000000 -1312.000000 696.000000
-7242.000000 -1312.000000 696.000000
-7244.000000 -1312.000000 696.000000
-7246.000000 -1312.000000 696.000000
-7248.000000 -1312.000000 696.000000
-7250.000000 -1312.000000 696.000000
-7252.000000 -1312.000000 696.000000
-7254.000000 -1312.000000 696.000000
-7256.000000 -1312.000000 696.000000
-7258.000000 -1312.000000 696.000000
-7260.000000 -1312.000000 696.000000
-7262.000000 -1312.000000 696.000000
-7264.000000 -1312.000000 696.000000
-7266.000000 -1312.000000 696.000000
-7268.000000 -1312.000000 696.000000
-7270.000000 -1312.000000 696.000000
-7272.000000 -1312.000000 696.000000
-7274.000000 -1312.000000 696.000000
-7276.000000 -1312.000000 696.000000
-7278.000000 -1312.000000 696.000000
-7280.000000 -1312.000000 696.000000
-7282.000000 -1312.000000 696.000000
-7284.000000 -1312.000000 696.000000
-7286.000000 -1312.000000 696.000000
-7288.000000 -1312.000000 696.000000
-7290.000000 -1312.000000 696.000000
-7292.000000 -1312.000000 696.000000
-7294.000000 -1312.000000 696.000000
-7296.000000 -1312.000000 696.000000
-7298.000000 -1312.000000 696.000000
-7300.000000 -1312.000000 696.000000
-7302.000000 -1312.000000 696.000000
-7304.000000 -1312.000000 696.000000
-7306.000000 -1312.000000 696.000000
-7308.000000 -1312.000000 696.000000
-7310.000000 -1312.000000 696.000000
-7312.000000 -1312.000000 696.000000
-7314.000000 -1312.000000 696.000000
-7316.000000 -1312.000000 696.000000
-7318.000000 -1312.000000 696.000000
-7320.000000 -1312.000000 696.000000
-7322.000000 -1312.000000 696.000000
-7324.000000 -1312.000000 696.000000
-7326.000000 -1312.000000 696.000000
-7328.000000 -1312.000000 696.000000
-7330.000000 -1312.000000 696.000000
-7332.000000 -1312.000000 696.000000
-7334.000000 -1312.000000 696.000000
-7336.000000 -1312.000000 696.000000
-7338.000000 -1312.000000 696.000000
-7340.000000 -1312.000000 696.000000
-7342.000000 -1312.000000 696.000000
-7344.000000 -1312.000000 696.000000
-7346.000000 -1312.000000 696.000000
-7348.000000 -1312.000000 696.000000
-7350.000000 -1312.000000 696.000000
-7352.000000 -1312.000000 696.000000
-7354.000000 -1312.000000 696.000000
-7356.000000 -1312.000000 696.000000
-7358.000000 -1312.000000 696.000000
-7360.000000 -1312.000000 696.000000
-7362.000000 -1312.000000 696.000000
-7364.000000 -1312.000000 696.000000
-7366.000000 -1312.000000 696.000000
-7368.000000 -1312.000000 696.000000
-7370.000000 -1312.000000 696.000000
-7372.000000 -1312.000000 696.000000
-7374.000000 -1312.000000 696.000000
-7376.000000 -1312.000000 696.000000
-7378.000000 -1312.000000 696.000000
-7380.000000 -1312.000000 696.000000
-7382.000000 -1312.000000 696.000000
-7384.000000 -1312.000000 696.000000
-7386.000000 -1312.000000 696.000000
-7388.000000 -1312.000000 696.000000
-7390.000000 -1312.000000 696.000000
-7392.000000 -1312.000000 696.000000
-7394.000000 -1312.000000 696.000000
-7396.000000 -1312.000000 696.000000
-7398.000000 -1312.000000 696.000000
-7400.000000 -1312.000000 696.000000
-7402.000000 -1312.000000 696.000000
-7404.000000 -1312.000000 696.000000
-7406.000000 -1312.000000 696.000000
-7408.000000 -1312.000000 696.000000
-7410.000000 -1312.000000 696.000000
-7412.000000 -1312.000000 696.000000
-7414.000000 -1312.000000 696.000000
-7416.000000 -1312.000000 696.000000
-7418.000000 -1312.000000 696.000000
-7420.000000 -1312.000000 696.000000
-7422.000000 -1312.000000 696.000000
-7424.000000 -1312.000000 696.000000
-7426.000000 -1312.000000 696.000000
-7428.000000 -1312.000000 696.000000
-7430.000000 -1312.000000 696.000000
-7432.000000 -1312.000000 696.000000
-7434.000000 -1312.000000 696.000000
-7436.000000 -1312.000000 696.000000
-7438.000000 -1312.000000 696.000000
-7440.000000 -1312.000000 696.000000
-7442.000000 -1312.000000 696.000000
-7444.000000 -1312.000000 696.000000
-7446.000000 -1312.000000 696.000000
-7448.000000 -1312.000000 696.000000
-7450.000000 -1312.000000 696.000000
-7452.000000 -1312.000000 696.000000
-7454.000000 -1312.000000 696.000000
-7456.000000 -1312.000000 696.000000
-7458.000000 -1312.000000 696.000000
-7460.000000 -1312.000000 696.000000
-7462.000000 -1312.000000 696.000000
-7464.000000 -1312.000000 696.000000
-7466.000000 -1312.000000 696.000000
-7468.000000 -1312.000000 696.000000
-7470.000000 -1312.000000 696.000000
-7472.000000 -1312.000000 696.000000
-7474.000000 -1312.000000 696.000000
-7476.000000 -1312.000000 696.000000
-7478.000000 -1312.000000 696.000000
-7480.000000 -1312.000000 696.000000
-7482.000000 -1312.000000 696.000000
-7484.000000 -1312.000000 696.000000
-7486.000000 -1312.000000 696.000000
-7488.000000 -1312.000000 696.000000
-7490.000000 -1312.000000 696.000000
-7492.000000 -1312.000000 696.000000
-7494.000000 -1312.000000 696.000000
-7496.000000 -1312.000000 696.000000
-7498.000000 -1312.000000 696.000000
-7500.000000 -1312.000000 696.000000
-7502.000000 -1312.000000 696.000000
-7504.000000 -1312.000000 696.000000
-7506.000000 -1312.000000 696.000000
-7508.000000 -1312.000000 696.000000
-7510.000000 -1312.000000 696.000000
-7512.000000 -1312.000000 696.000000
-7514.000000 -1312.000000 696.000000
-7516.000000 -1312.000000 696.000000
-7518.000000 -1312.000000 696.000000
-7520.000000 -1312.000000 696.000000
-7522.000000 -1312.000000 696.000000
-7524.000000 -1312.000000 696.000000
-7526.000000 -1312.000000 696.000000
-7528.000000 -1312.000000 696.000000
-7530.000000 -1312.000000 696.000000
-7532.000000 -1312.000000 696.000000
-7534.000000 -1312.000000 696.000000
-7536.000000 -1312.000000 696.000000
-7538.000000 -1312.000000 696.000000
-7540.000000 -1312.000000 696.000000
-7542.000000 -1312.000000 696.000000
-7544.000000 -1312.000000 696.000000
-7546.000000 -1312.000000 696.000000
-7548.000000 -1312.000000 696.000000
-7550.000000 -1312.000000 696.000000
-7552.000000 -1312.000000 696.000000
-7554.000000 -1312.000000 696.000000
-7556.000000 -1312.000000 696.000000
-7558.000000 -1312.000000 696.000000
-7560.000000 -1312.000000 696.000000
-7562.000000 -1312.000000 696.000000
-7564.000000 -1312.000000 696.000000
-7566.000000 -1312.000000 696.000000
-7568.000000 -1312.000000 696.000000
-7570.000000 -1312.000000 696.000000
-7572.000000 -1312.000000 696.000000
-7574.000000 -1312.000000 696.000000
-7576.000000 -1312.000000 696.000000
-7578.000000 -1312.000000 696.000000
-7580.000000 -1312.000000 696.000000
-7582.000000 -1312.000000 696.000000
-7584.000000 -1312.000000 696.000000
-7586.000000 -1312.000000 696.000000
-7588.000000 -1312.000000 696.000000
-7590.000000 -1312.000000 696.000000
-7592.000000 -1312.000000 696.000000
-7594.000000 -1312.000000 696.000000
-7596.000000 -1312.000000 696.000000
-7598.000000 -1312.000000 696.000000
-7600.000000 -1312.000000 696.000000
-7602.000000 -1312.000000 696.000000
-7604.000000 -1312.000000 696.000000
-7606.000000 -1312.000000 696.000000
-7608.000000 -1312.000000 696.000000
-7610.000000 -1312.000000 696.000000
-7612.000000 -1312.000000 696.000000
-7614.000000 -1312.000000 696.000000
-7616.000000 -1312.000000 696.000000
-7618.000000 -1312.000000 696.000000
-7620.000000 -1312.000000 696.000000
-7622.000000 -1312.000000 696.000000
-7624.000000 -1312.000000 696.000000
-7626.000000 -1312.000000 696.000000
-7628.000000 -1312.000000 696.000000
-7630.000000 -1312.000000 696.000000
-7632.000000 -1312.000000 696.000000
-7634.000000 -1312.000000 696.000000
-7636.000000 -1312.000000 696.000000
-7638.000000 -1312.000000 696.000000
-7640.000000 -1312.000000 696.000000
-7642.000000 -1312.000000 696.000000
-7644.000000 -1312.000000 696.000000
-7646.000000 -1312.000000 696.000000
-7648.000000 -1312.000000 696.000000
-7650.000000 -1312.000000 696.000000
-7652.000000 -1312.000000 696.000000
-7654.000000 -1312.000000 696.000000
-7656.000000 -1312.000000 696.000000
-7658.000000 -1312.000000 696.000000
-7660.000000 -1312.000000 696.000000
-7662.000000 -1312.000000 696.000000
-7664.000000 -1312.000000 696.000000
-7666.000000 -1312.000000 696.000000
-7668.000000 -1312.000000 696.000000
-7670.000000 -1312.000000 696.000000
-7672.000000 -1312.000000 696.000000
-7674.000000 -1312.000000 696.000000
-7676.000000 -1312.000000 696.000000
-7678.000000 -1312.000000 696.000000
-7680.000000 -1312.000000 696.000000
-7682.000000 -1312.000000 696.000000
-7684.000000 -1312.000000 696.000000
-7686.000000 -1312.000000 696.000000
-7688.000000 -1312.000000 696.000000
-7690.000000 -1312.000000 696.000000
-7692.000000 -1312.000000 696.000000
-7694.000000 -1312.000000 696.000000
-7696.000000 -1312.000000 696.000000
-7698.000000 -1312.000000 696.000000
-7700.000000 -1312.000000 696.000000
-7702.000000 -1312.000000 696.000000
-7704.000000 -1312.000000 696.000000
-7706.000000 -1312.000000 696.000000
-7708.000000 -1312.000000 696.000000
-7710.000000 -1312.000000 696.000000
-7712.000000 -1312.000000 696.000000
-7714.000000 -1312.000000 696.000000
-7716.000000 -1312.000000 696.000000
-7718.000000 -1312.000000 696.000000
-7720.000000 -1312.000000 696.000000
-7722.000000 -1312.000000 696.000000
-7724.000000 -1312.000000 696.000000
-7726.000000 -1312.000000 696.000000
-7728.000000 -1312.000000 696.000000
-7730.000000 -1312.000000 696.000000
-7732.000000 -1312.000000 696.000000
-7734.000000 -1312.000000 696.000000
-7736.000000 -1312.000000 696.000000
-7738.000000 -1312.000000 696.000000
-7740.000000 -1312.000000 696.000000
-7742.000000 -1312.000000 696.000000
-7744.000000 -1312.000000 696.000000
-7746.000000 -1312.000000 696.000000
-7748.000000 -1312.000000 696.000000
-7750.000000 -1312.000000 696.000000
-7752.000000 -1312.000000 696.000000
-7754.000000 -1312.000000 696.000000
-7756.000000 -1312.000000 696.000000
-7758.000000 -1312.000000 696.000000
-7760.000000 -1312.000000 696.000000
-7762.000000 -1312.000000 696.000000
-7764.000000 -1312.000000 696.000000
-7766.000000 -1312.000000 696.000000
-7768.000000 -1312.000000 696.000000
-7770.000000 -1312.000000 696.000000
-7772.000000 -1312.000000 696.000000
-7774.000000 -1312.000000 696.000000
-7776.000000 -1312.000000 696.000000
-7778.000000 -1312.000000 696.000000
-7780.000000 -1312.000000 696.000000
-7782.000000 -1312.000000 696.000000
-7784.000000 -1312.000000 696.000000
-7786.000000 -1312.000000 696.000000
-7788.000000 -1312.000000 696.000000
-7790.000000 -1312.000000 696.000000
-7792.000000 -1312.000000 696.000000
-7794.000000 -1312.000000 696.000000
-7796.000000 -1312.000000 696.000000
-7798.000000 -1312.000000 696.000000
-7800.000000 -1312.000000 696.000000
-7802.000000 -1312.000000 696.000000
-7804.000000 -1312.000000 696.000000
-7808.000000 -1312.000000 696.000000
-7809.175897 -1313.616858 695.944880
-7810.351793 -1315.233716 695.889760
-7811.527690 -1316.850573 695.834640
-7812.703586 -1318.467431 695.779519
-7813.879483 -1320.084289 695.724399
-7815.055379 -1321.701147 695.669279
-7816.231276 -1323.318004 695.614159
-7817.407172 -1324.934862 695.559039
-7818.583069 -1326.551720 695.503919
-7819.758966 -1328.168578 695.448798
-7820.934862 -1329.785435 695.393678
-7822.110759 -1331.402293 695.338558
-7823.286655 -1333.019151 695.283438
-7824.462552 -1334.636009 695.228318
-7825.638448 -1336.252867 695.173198
-7826.814345 -1337.869724 695.118078
-7827.990242 -1339.486582 695.062957
-7829.166138 -1341.103440 695.007837
-7830.342035 -1342.720298 694.952717
-7831.517931 -1344.337155 694.897597
-7832.693828 -1345.954013 694.842477
-7833.869724 -1347.570871 694.787357
-7835.045621 -1349.187729 694.732237
-7836.221517 -1350.804586 694.677116
-7837.397414 -1352.421444 694.621996
-7838.573311 -1354.038302 694.566876
-7839.749207 -1355.655160 694.511756
-7840.925104 -1357.272018 694.456636
-7842.101000 -1358.888875 694.401516
-7843.276897 -1360.505733 694.346395
-7844.452793 -1362.122591 694.291275
-7845.628690 -1363.739449 694.236155
-7846.804586 -1365.356306 694.181035
-7847.980483 -1366.973164 694.125915
-7849.156380 -1368.590022 694.070795
-7850.332276 -1370.206880 694.015675
-7851.508173 -1371.823737 693.960554
-7852.684069 -1373.440595 693.905434
-7853.859966 -1375.057453 693.850314
-7855.035862 -1376.674311 693.795194
-7856.211759 -1378.291169 693.740074
-7857.387656 -1379.908026 693.684954
-7858.563552 -1381.524884 693.629833
-7859.739449 -1383.141742 693.574713
-7860.915345 -1384.758600 693.519593
-7862.091242 -1386.375457 693.464473
-7863.267138 -1387.992315 693.409353
-7864.443035 -1389.609173 693.354233
-7865.618931 -1391.226031 693.299113
-7866.794828 -1392.842889 693.243992
-7867.970725 -1394.459746 693.188872
-7869.146621 -1396.076604 693.133752
-7870.322518 -1397.693462 693.078632
-7871.498414 -1399.310320 693.023512
-7872.674311 -1400.927177 692.968392
-7873.850207 -1402.544035 692.913272
-7875.026104 -1404.160893 692.858151
-7876.202000 -1405.777751 692.803031
-7877.377897 -1407.394608 692.747911
-7878.553794 -1409.011466 692.692791
-7879.729690 -1410.628324 692.637671
-7880.905587 -1412.245182 692.582551
-7882.081483 -1413.862040 692.527430
-7883.257380 -1415.478897 692.472310
-7884.433276 -1417.095755 692.417190
-7885.609173 -1418.712613 692.362070
-7886.785070 -1420.329471 692.306950
-7887.960966 -1421.946328 692.251830
-7889.136863 -1423.563186 692.196710
-7890.312759 -1425.180044 692.141589
-7891.488656 -1426.796902 692.086469
